x,y,z,theta,omega
0.0,0.0,423.0,0.0,2.217
-0.0,0.0,420.0,0.0,2.251
0.0,0.0,156.0,0.0,2.286
-0.0,0.0,425.0,0.0,2.286
0.0,0.0,420.0,0.0,2.321
-0.0,0.0,165.0,0.0,2.356
0.0,0.0,422.0,0.0,2.356
-0.0,0.0,0.0,0.0,2.409
0.0,0.0,183.0,0.0,2.443
0.0,0.0,434.0,0.0,2.443
-0.0,0.0,189.0,0.0,2.478
0.0,0.0,416.0,0.0,2.478
-0.0,0.0,185.0,0.0,2.531
0.0,0.0,181.0,0.0,2.566
0.0,0.0,0.0,0.0,2.601
0.0,0.0,0.0,0.0,2.635
-0.0,0.0,164.0,0.0,2.67
0.0,0.0,0.0,0.0,2.67
0.0,0.0,161.0,0.0,2.688
-0.0,0.0,0.0,0.0,2.688
0.0,0.0,162.0,0.0,2.723
-0.0,0.0,0.0,0.0,2.723
-0.0,0.0,153.0,0.0,2.758
0.0,0.0,0.0,0.0,2.758
-0.0,0.0,141.0,0.0,2.793
0.0,0.0,0.0,0.0,2.793
-0.0,0.0,142.0,0.0,2.827
-0.0,0.0,0.0,0.0,2.827
0.0,0.0,143.0,0.0,2.845
-0.0,0.0,0.0,0.0,2.845
0.0,0.0,132.0,0.0,2.88
-0.0,0.0,0.0,0.0,2.88
-0.0,0.0,137.0,0.0,2.915
0.0,0.0,0.0,0.0,2.915
-0.0,0.0,134.0,0.0,2.95
0.0,0.0,0.0,0.0,2.95
-0.0,0.0,131.0,0.0,2.985
0.0,0.0,0.0,0.0,2.985
0.0,0.0,130.0,0.0,3.002
-0.0,0.0,0.0,0.0,3.002
0.0,0.0,133.0,0.0,3.037
-0.0,0.0,0.0,0.0,3.037
-0.0,0.0,134.0,0.0,3.072
0.0,0.0,0.0,0.0,3.072
-0.0,0.0,133.0,0.0,3.107
0.0,0.0,0.0,0.0,3.107
-0.0,0.0,0.0,0.035,3.142
0.0,0.0,0.0,0.035,3.142
-0.0,0.0,0.0,0.035,3.107
0.0,0.0,0.0,0.035,3.107
3.795,0.265,108.934,0.035,3.072
-0.0,0.0,0.0,0.035,3.072
4.408,0.463,126.923,0.035,3.037
-0.0,0.0,0.0,0.035,3.037
4.596,0.646,132.919,0.035,3.002
-0.0,0.0,0.0,0.035,3.002
-4.262,0.751,123.924,0.035,2.967
0.0,0.0,0.0,0.035,2.967
-4.317,0.839,125.923,0.035,2.95
0.0,0.0,0.0,0.035,2.95
-5.985,1.382,175.893,0.035,2.915
-0.0,0.0,0.0,0.035,2.915
4.315,1.156,127.922,0.035,2.88
-0.0,0.0,0.0,0.035,2.88
4.472,1.367,133.918,0.035,2.845
-0.0,0.0,0.0,0.035,2.845
-4.62,1.591,139.915,0.035,2.81
0.0,0.0,0.0,0.035,2.81
-5.805,2.113,176.892,0.035,2.793
0.0,0.0,0.0,0.035,2.793
-5.857,2.366,180.89,0.035,2.758
-0.0,0.0,0.0,0.035,2.758
4.559,2.03,142.913,0.035,2.723
-0.0,0.0,0.0,0.035,2.723
4.329,2.111,137.916,0.035,2.688
-0.0,0.0,0.0,0.035,2.688
-4.53,2.408,146.91,0.035,2.653
0.0,0.0,0.0,0.035,2.653
-4.823,2.673,157.904,0.035,2.635
0.0,0.0,0.0,0.035,2.635
-4.727,2.84,157.904,0.035,2.601
0.0,0.0,0.0,0.035,2.601
4.742,3.079,161.901,0.035,2.566
-0.0,0.0,0.0,0.035,2.566
4.488,3.143,156.904,0.035,2.531
-2.83,1.982,98.94,0.035,2.531
-4.85,3.655,173.894,0.035,2.496
2.202,1.659,78.952,0.035,2.496
-4.84,3.782,175.893,0.035,2.478
-2.063,1.611,74.954,0.035,2.478
4.438,3.724,165.899,0.035,2.443
-1.871,1.57,69.957,0.035,2.443
4.02,3.62,154.906,0.035,2.409
2.334,2.102,89.945,0.035,2.409
-4.067,3.927,161.901,0.035,2.374
2.159,2.085,85.948,0.035,2.374
-3.733,3.866,153.906,0.035,2.339
-2.061,2.134,84.948,0.035,2.339
3.689,3.956,154.906,0.035,2.321
-2.19,2.348,91.944,0.035,2.321
-3.412,3.925,148.909,0.035,2.286
2.221,2.555,96.941,0.035,2.286
-3.119,3.851,141.913,0.035,2.251
2.372,2.929,107.934,0.035,2.251
2.919,3.874,138.915,0.035,2.217
-2.331,3.094,110.932,0.035,2.217
2.742,3.917,136.917,0.035,2.182
2.182,3.116,108.934,0.035,2.182
-2.615,3.877,133.918,0.035,2.164
2.127,3.154,108.934,0.035,2.164
-2.515,4.025,135.917,0.035,2.129
-1.664,2.664,89.945,0.035,2.129
2.268,3.929,129.921,0.035,2.094
-1.71,2.962,97.94,0.035,2.094
-2.146,4.037,130.92,0.035,2.059
1.688,3.174,102.937,0.035,2.059
-1.989,4.078,129.921,0.035,2.025
1.576,3.231,102.937,0.035,2.025
1.844,3.954,124.924,0.035,2.007
-1.608,3.448,108.934,0.035,2.007
1.691,3.984,123.924,0.035,1.972
2.482,5.847,181.889,0.035,1.972
-1.588,4.138,126.923,0.035,1.937
2.339,6.093,186.886,0.035,1.937
-1.398,4.059,122.925,0.035,1.902
-2.091,6.072,183.888,0.035,1.902
1.214,3.972,118.928,0.035,1.868
-1.959,6.408,191.883,0.035,1.868
-1.174,4.093,121.926,0.035,1.85
2.193,7.649,227.861,0.035,1.85
-0.988,3.962,116.929,0.035,1.815
1.638,6.569,193.882,0.035,1.815
0.784,3.687,107.934,0.035,1.78
-1.422,6.691,195.881,0.035,1.78
0.721,4.09,118.928,0.035,1.745
1.879,10.654,309.811,0.035,1.745
-0.568,4.044,116.929,0.035,1.71
1.384,9.85,284.826,0.035,1.71
-0.51,4.157,119.927,0.035,1.693
-1.191,9.699,279.829,0.035,1.693
0.368,4.207,120.926,0.035,1.658
-0.794,9.074,260.841,0.035,1.658
0.199,3.799,108.934,0.035,1.623
0.44,8.399,240.853,0.035,1.623
-0.068,3.908,111.932,0.035,1.588
0.14,8.026,229.86,0.035,1.588
-0.066,3.803,108.934,0.035,1.553
0.129,7.398,211.871,0.035,1.553
-0.138,3.941,112.931,0.035,1.536
-0.258,7.394,211.871,0.035,1.536
0.273,3.899,111.932,0.035,1.501
-0.501,7.172,205.875,0.035,1.501
0.412,3.922,112.931,0.035,1.466
0.7,6.664,191.883,0.035,1.466
-0.559,3.974,114.93,0.035,1.431
0.908,6.463,186.886,0.035,1.431
0.685,3.884,112.931,0.035,1.396
-1.103,6.255,181.889,0.035,1.396
0.752,3.871,112.931,0.035,1.379
-1.219,6.269,182.889,0.035,1.379
-0.903,3.911,114.93,0.035,1.344
1.397,6.053,177.892,0.035,1.344
-1.057,3.944,116.929,0.035,1.309
-1.545,5.764,170.896,0.035,1.309
1.265,4.138,123.924,0.035,1.274
-1.694,5.54,165.899,0.035,1.274
1.363,3.96,119.927,0.035,1.239
1.863,5.412,163.9,0.035,1.239
-1.516,4.165,126.923,0.035,1.222
1.886,5.182,157.904,0.035,1.222
1.608,3.98,122.925,0.035,1.187
-2.013,4.983,153.906,0.035,1.187
1.774,3.985,124.924,0.035,1.152
-2.129,4.782,149.909,0.035,1.152
-1.912,3.921,124.924,0.035,1.117
2.218,4.548,144.912,0.035,1.117
-2.13,4.006,129.921,0.035,1.082
-2.327,4.376,141.913,0.035,1.082
2.267,4.09,133.918,0.035,1.065
-2.403,4.334,141.913,0.035,1.065
2.445,4.068,135.917,0.035,1.03
2.498,4.158,138.915,0.035,1.03
-2.661,4.098,139.915,0.035,0.995
2.49,3.834,130.92,0.035,0.995
-2.802,4.002,139.915,0.035,0.96
-2.642,3.774,131.92,0.035,0.96
2.982,3.958,141.913,0.035,0.925
-2.73,3.623,129.921,0.035,0.925
-3.158,4.043,146.91,0.035,0.908
2.707,3.465,125.923,0.035,0.908
-3.343,3.983,148.909,0.035,0.873
2.916,3.475,129.921,0.035,0.873
3.69,4.098,157.904,0.035,0.838
-3.012,3.346,128.921,0.035,0.838
3.83,3.967,157.904,0.035,0.803
3.03,3.138,124.924,0.035,0.803
-4.167,4.024,165.899,0.035,0.768
3.163,3.055,125.923,0.035,0.768
-4.365,4.07,170.896,0.035,0.75
-3.088,2.88,120.926,0.035,0.75
4.425,3.847,167.898,0.035,0.716
-3.213,2.793,121.926,0.035,0.716
-5.018,4.063,184.887,0.035,0.681
3.173,2.57,116.929,0.035,0.681
-5.351,4.033,191.883,0.035,0.646
3.205,2.415,114.93,0.035,0.646
5.718,4.004,199.878,0.035,0.611
-3.288,2.302,114.93,0.035,0.611
6.076,4.098,209.872,0.035,0.593
3.327,2.244,114.93,0.035,0.593
-6.156,3.847,207.873,0.035,0.559
3.404,2.127,114.93,0.035,0.559
-6.861,3.961,226.862,0.035,0.524
-3.597,2.077,118.928,0.035,0.524
6.933,3.686,224.863,0.035,0.489
-3.605,1.917,116.929,0.035,0.489
-7.779,3.794,247.849,0.035,0.454
3.482,1.698,110.932,0.035,0.454
-8.382,3.909,264.839,0.035,0.436
3.669,1.711,115.929,0.035,0.436
8.674,3.682,269.836,0.035,0.401
-3.727,1.582,115.929,0.035,0.401
10.263,3.94,314.808,0.035,0.367
3.779,1.451,115.929,0.035,0.367
-16.037,5.522,485.704,0.035,0.332
3.762,1.295,113.931,0.035,0.332
-14.451,4.418,432.736,0.035,0.297
-3.871,1.184,115.929,0.035,0.297
15.499,4.444,461.719,0.035,0.279
-3.858,1.106,114.93,0.035,0.279
15.374,3.833,453.723,0.035,0.244
4.064,1.013,119.927,0.035,0.244
-15.293,3.251,447.727,0.035,0.209
3.96,0.842,115.929,0.035,0.209
15.535,2.739,451.725,0.035,0.175
-4.09,0.721,118.928,0.035,0.175
15.725,2.21,454.723,0.035,0.14
-4.285,0.602,123.924,0.035,0.14
-15.726,1.931,453.723,0.035,0.122
4.399,0.54,126.923,0.035,0.122
-15.854,1.387,455.722,0.035,0.087
-4.485,0.392,128.921,0.035,0.087
15.753,0.826,451.725,0.035,0.052
-4.531,0.237,129.921,0.035,0.052
15.493,0.27,443.73,0.035,0.017
4.641,0.081,132.919,0.035,0.017
-31.321,0.0,447.906,0.07,0.0
9.487,0.0,135.669,0.07,0.0
-31.525,0.55,450.899,0.07,0.017
31.271,2.736,448.904,0.07,0.087
8.825,0.772,126.691,0.07,0.087
-31.226,3.834,449.901,0.07,0.122
8.724,1.071,125.693,0.07,0.122
-31.624,5.009,457.882,0.07,0.157
-8.337,1.32,120.705,0.07,0.157
31.807,5.608,461.872,0.07,0.175
-8.381,1.478,121.703,0.07,0.175
-31.455,6.686,459.877,0.07,0.209
8.256,1.755,120.705,0.07,0.209
-30.864,7.695,454.889,0.07,0.244
8.122,2.025,119.708,0.07,0.244
30.979,8.883,460.875,0.07,0.279
-7.979,2.288,118.71,0.07,0.279
30.517,9.916,458.879,0.07,0.314
7.895,2.565,118.71,0.07,0.314
7.651,2.634,115.717,0.07,0.332
28.459,10.924,435.935,0.07,0.367
-7.619,2.925,116.715,0.07,0.367
20.355,8.64,316.228,0.07,0.401
-7.448,3.162,115.717,0.07,0.401
-18.524,8.638,292.286,0.07,0.436
7.523,3.508,118.71,0.07,0.436
7.21,3.517,114.72,0.07,0.454
16.137,8.58,261.362,0.07,0.489
-7.391,3.93,119.708,0.07,0.489
14.801,8.545,244.403,0.07,0.524
7.31,4.22,120.705,0.07,0.524
7.158,4.473,120.705,0.07,0.559
-13.301,8.972,229.44,0.07,0.593
-6.94,4.681,119.708,0.07,0.593
12.171,8.522,212.481,0.07,0.611
-6.686,4.681,116.715,0.07,0.611
-11.978,9.026,214.476,0.07,0.646
6.685,5.038,119.708,0.07,0.646
-11.059,8.955,203.503,0.07,0.681
-6.614,5.356,121.703,0.07,0.681
-6.475,5.629,122.7,0.07,0.716
6.275,5.852,122.7,0.07,0.75
6.272,6.057,124.696,0.07,0.768
8.625,8.932,177.566,0.07,0.803
-6.154,6.373,126.691,0.07,0.803
-6.208,6.895,132.676,0.07,0.838
-7.309,8.71,162.603,0.07,0.873
6.008,7.16,133.674,0.07,0.873
-5.97,7.641,138.661,0.07,0.908
6.202,8.857,154.622,0.07,0.96
5.642,8.057,140.657,0.07,0.96
5.281,8.132,138.661,0.07,0.995
-5.317,8.849,147.639,0.07,1.03
-4.862,9.969,158.613,0.07,1.117
-4.454,10.005,156.618,0.07,1.152
4.468,11.06,170.583,0.07,1.187
4.175,11.471,174.574,0.07,1.222
3.691,12.074,180.559,0.07,1.274
3.268,12.196,180.559,0.07,1.309
-3.044,13.186,193.527,0.07,1.344
-2.675,13.763,200.51,0.07,1.379
2.248,14.193,205.498,0.07,1.414
-1.641,15.609,224.452,0.07,1.466
0.604,17.289,247.396,0.07,1.536
0.32,18.343,262.359,0.07,1.588
-1.921,21.959,315.23,0.07,1.658
-2.172,13.711,198.515,0.07,1.728
4.674,8.095,133.674,0.07,2.094
3.558,6.162,101.752,0.07,2.094
-5.138,8.223,138.661,0.07,2.129
-5.5,8.154,140.657,0.07,2.164
-6.409,7.915,145.644,0.07,2.251
-4.346,5.367,98.759,0.07,2.251
7.185,8.265,156.618,0.07,2.286
7.517,8.061,157.615,0.07,2.321
-7.991,7.991,161.605,0.07,2.356
8.813,7.935,169.586,0.07,2.409
-4.666,4.201,89.781,0.07,2.409
-9.512,7.981,177.566,0.07,2.443
-9.949,7.773,180.559,0.07,2.478
-4.947,3.865,89.781,0.07,2.478
10.948,7.954,193.527,0.07,2.513
-8.522,6.191,150.632,0.07,2.513
-10.971,7.682,191.532,0.07,2.531
-10.764,6.991,183.552,0.07,2.566
11.233,7.294,191.532,0.07,2.566
10.583,6.359,176.569,0.07,2.601
0.0,0.0,0.0,0.07,2.601
10.86,6.02,177.566,0.07,2.635
-0.0,0.0,0.0,0.07,2.635
10.877,5.542,174.574,0.07,2.67
0.0,0.0,0.0,0.07,2.67
-10.345,5.046,164.598,0.07,2.688
0.0,0.0,0.0,0.07,2.688
-10.451,4.653,163.601,0.07,2.723
0.0,0.0,0.0,0.07,2.723
9.896,3.998,152.627,0.07,2.758
-0.0,0.0,0.0,0.07,2.758
9.308,3.388,141.654,0.07,2.793
-0.0,0.0,0.0,0.07,2.793
9.752,3.169,146.642,0.07,2.827
0.0,0.0,0.0,0.07,2.827
-9.406,2.876,140.657,0.07,2.845
0.0,0.0,0.0,0.07,2.845
-9.366,2.51,138.661,0.07,2.88
0.0,0.0,0.0,0.07,2.88
8.768,2.024,128.686,0.07,2.915
-0.0,0.0,0.0,0.07,2.915
8.902,1.73,129.683,0.07,2.95
-0.0,0.0,0.0,0.07,2.95
9.094,1.44,131.678,0.07,2.985
-0.0,0.0,0.0,0.07,2.985
-9.533,1.34,137.664,0.07,3.002
0.0,0.0,0.0,0.07,3.002
-9.782,1.028,140.657,0.07,3.037
0.0,0.0,0.0,0.07,3.037
9.533,0.667,136.666,0.07,3.072
-0.0,0.0,0.0,0.07,3.072
9.621,0.336,137.664,0.07,3.107
-0.0,0.0,0.0,0.07,3.107
14.634,0.0,139.233,0.105,3.142
-0.0,0.0,0.0,0.105,3.142
14.834,0.518,141.222,0.105,3.107
-0.0,0.0,0.0,0.105,3.107
-14.181,0.992,135.255,0.105,3.072
0.0,0.0,0.0,0.105,3.072
-14.242,1.497,136.249,0.105,3.037
0.0,0.0,0.0,0.105,3.037
14.388,2.022,138.239,0.105,3.002
-0.0,0.0,0.0,0.105,3.002
0.0,0.0,231.0,0.0,0.0
-0.0,0.0,109.0,0.0,0.0
-0.0,0.0,443.0,0.0,0.052
0.0,0.0,137.0,0.0,0.052
-0.0,0.0,445.0,0.0,0.087
0.0,0.0,445.0,0.0,0.122
-0.0,0.0,125.0,0.0,0.122
0.0,0.0,452.0,0.0,0.157
-0.0,0.0,454.0,0.0,0.175
0.0,0.0,454.0,0.0,0.209
-0.0,0.0,122.0,0.0,0.209
0.0,0.0,121.0,0.0,0.244
0.0,0.0,119.0,0.0,0.279
-0.0,0.0,119.0,0.0,0.314
-0.0,0.0,285.0,0.0,0.436
0.0,0.0,274.0,0.0,0.454
0.0,0.0,117.0,0.0,0.489
0.0,0.0,230.0,0.0,0.559
0.0,0.0,117.0,0.0,0.559
-0.0,0.0,232.0,0.0,0.593
-0.0,0.0,217.0,0.0,0.611
-0.0,0.0,119.0,0.0,0.611
-0.0,0.0,199.0,0.0,0.716
-0.0,0.0,122.0,0.0,0.716
0.0,0.0,189.0,0.0,0.75
0.0,0.0,179.0,0.0,0.768
0.0,0.0,172.0,0.0,0.838
0.0,0.0,167.0,0.0,0.873
-0.0,0.0,159.0,0.0,0.908
0.0,0.0,134.0,0.0,0.908
-0.0,0.0,153.0,0.0,0.925
-0.0,0.0,133.0,0.0,0.925
-0.0,0.0,137.0,0.0,0.96
0.0,0.0,147.0,0.0,0.995
0.0,0.0,140.0,0.0,0.995
-0.0,0.0,144.0,0.0,1.03
0.0,0.0,143.0,0.0,1.03
0.0,0.0,143.0,0.0,1.065
-0.0,0.0,144.0,0.0,1.065
0.0,0.0,146.0,0.0,1.082
-0.0,0.0,142.0,0.0,1.117
0.0,0.0,149.0,0.0,1.117
0.0,0.0,134.0,0.0,1.152
-0.0,0.0,150.0,0.0,1.152
0.0,0.0,136.0,0.0,1.187
-0.0,0.0,159.0,0.0,1.187
-0.0,0.0,138.0,0.0,1.222
0.0,0.0,164.0,0.0,1.222
-0.0,0.0,136.0,0.0,1.239
-0.0,0.0,167.0,0.0,1.239
0.0,0.0,131.0,0.0,1.274
-0.0,0.0,174.0,0.0,1.274
-0.0,0.0,128.0,0.0,1.309
0.0,0.0,182.0,0.0,1.309
-0.0,0.0,132.0,0.0,1.344
0.0,0.0,188.0,0.0,1.344
0.0,0.0,132.0,0.0,1.379
-0.0,0.0,197.0,0.0,1.379
0.0,0.0,130.0,0.0,1.414
0.0,0.0,196.0,0.0,1.414
-0.0,0.0,127.0,0.0,1.431
0.0,0.0,197.0,0.0,1.431
0.0,0.0,128.0,0.0,1.466
-0.0,0.0,211.0,0.0,1.466
0.0,0.0,129.0,0.0,1.501
-0.0,0.0,217.0,0.0,1.501
-0.0,0.0,127.0,0.0,1.536
0.0,0.0,228.0,0.0,1.536
-0.0,0.0,130.0,0.0,1.571
-0.0,0.0,239.0,0.0,1.571
-0.0,0.0,127.0,0.0,1.588
0.0,0.0,242.0,0.0,1.588
0.0,0.0,126.0,0.0,1.623
-0.0,0.0,258.0,0.0,1.623
0.0,0.0,127.0,0.0,1.658
-0.0,0.0,128.0,0.0,1.693
0.0,0.0,364.0,0.0,1.693
-0.0,0.0,127.0,0.0,1.728
-0.0,0.0,378.0,0.0,1.728
0.0,0.0,128.0,0.0,1.745
-0.0,0.0,393.0,0.0,1.745
0.0,0.0,130.0,0.0,1.78
0.0,0.0,415.0,0.0,1.78
-0.0,0.0,127.0,0.0,1.815
0.0,0.0,415.0,0.0,1.815
0.0,0.0,130.0,0.0,1.85
-0.0,0.0,411.0,0.0,1.85
0.0,0.0,128.0,0.0,1.885
0.0,0.0,400.0,0.0,1.885
-0.0,0.0,129.0,0.0,1.902
0.0,0.0,398.0,0.0,1.902
-0.0,0.0,131.0,0.0,1.937
-0.0,0.0,437.0,0.0,1.937
0.0,0.0,134.0,0.0,1.972
-0.0,0.0,431.0,0.0,1.972
-0.0,0.0,133.0,0.0,2.007
0.0,0.0,434.0,0.0,2.007
-0.0,0.0,139.0,0.0,2.042
0.0,0.0,430.0,0.0,2.042
0.0,0.0,138.0,0.0,2.059
-0.0,0.0,431.0,0.0,2.059
0.0,0.0,140.0,0.0,2.094
0.0,0.0,428.0,0.0,2.094
-0.0,0.0,144.0,0.0,2.129
0.0,0.0,430.0,0.0,2.129
0.0,0.0,146.0,0.0,2.164
-0.0,0.0,426.0,0.0,2.164
0.0,0.0,144.0,0.0,2.199
-0.0,0.0,431.0,0.0,2.199
-0.0,0.0,149.0,0.0,2.217
0.0,0.0,426.0,0.0,2.217
-0.0,0.0,146.0,0.0,2.251
-0.0,0.0,428.0,0.0,2.251
0.0,0.0,157.0,0.0,2.286
-0.0,0.0,414.0,0.0,2.286
0.0,0.0,159.0,0.0,2.321
0.0,0.0,421.0,0.0,2.321
0.0,0.0,423.0,0.0,2.356
0.0,0.0,171.0,0.0,2.374
-0.0,0.0,421.0,0.0,2.374
0.0,0.0,171.0,0.0,2.409
-0.0,0.0,431.0,0.0,2.409
0.0,0.0,179.0,0.0,2.443
0.0,0.0,432.0,0.0,2.443
-0.0,0.0,0.0,0.0,2.513
0.0,0.0,187.0,0.0,2.531
-0.0,0.0,0.0,0.0,2.531
0.0,0.0,185.0,0.0,2.566
-0.0,0.0,0.0,0.0,2.566
-0.0,0.0,177.0,0.0,2.601
0.0,0.0,0.0,0.0,2.601
-0.0,0.0,177.0,0.0,2.635
0.0,0.0,0.0,0.0,2.635
-0.0,0.0,172.0,0.0,2.67
-0.0,0.0,0.0,0.0,2.67
0.0,0.0,167.0,0.0,2.688
-0.0,0.0,0.0,0.0,2.688
0.0,0.0,164.0,0.0,2.723
-0.0,0.0,0.0,0.0,2.723
-0.0,0.0,134.0,0.0,2.758
0.0,0.0,0.0,0.0,2.758
-0.0,0.0,148.0,0.0,2.793
0.0,0.0,0.0,0.0,2.793
-0.0,0.0,142.0,0.0,2.827
0.0,0.0,0.0,0.0,2.827
0.0,0.0,139.0,0.0,2.845
-0.0,0.0,0.0,0.0,2.845
0.0,0.0,138.0,0.0,2.88
-0.0,0.0,0.0,0.0,2.88
-0.0,0.0,139.0,0.0,2.915
0.0,0.0,0.0,0.0,2.915
-0.0,0.0,137.0,0.0,2.95
0.0,0.0,0.0,0.0,2.95
-0.0,0.0,136.0,0.0,2.985
0.0,0.0,0.0,0.0,2.985
0.0,0.0,132.0,0.0,3.002
-0.0,0.0,0.0,0.0,3.002
0.0,0.0,133.0,0.0,3.037
-0.0,0.0,0.0,0.0,3.037
-0.0,0.0,131.0,0.0,3.072
0.0,0.0,0.0,0.0,3.072
-0.0,0.0,129.0,0.0,3.107
0.0,0.0,0.0,0.0,3.107
-4.816,0.0,137.916,0.035,3.142
0.0,0.0,0.0,0.035,3.142
-4.29,0.15,122.925,0.035,3.107
-0.0,0.0,0.0,0.035,3.107
4.317,0.302,123.924,0.035,3.072
-0.0,0.0,0.0,0.035,3.072
4.824,0.507,138.915,0.035,3.037
-0.0,0.0,0.0,0.035,3.037
-4.182,0.588,120.926,0.035,3.002
0.0,0.0,0.0,0.035,3.002
-5.774,1.018,167.898,0.035,2.967
0.0,0.0,0.0,0.035,2.967
-5.858,1.139,170.896,0.035,2.95
0.0,0.0,0.0,0.035,2.95
5.645,1.303,165.899,0.035,2.915
-0.0,0.0,0.0,0.035,2.915
4.955,1.328,146.91,0.035,2.88
-0.0,0.0,0.0,0.035,2.88
-5.774,1.765,172.895,0.035,2.845
0.0,0.0,0.0,0.035,2.845
-4.521,1.557,136.917,0.035,2.81
0.0,0.0,0.0,0.035,2.81
-4.657,1.695,141.913,0.035,2.793
0.0,0.0,0.0,0.035,2.793
4.239,1.713,130.92,0.035,2.758
-0.0,0.0,0.0,0.035,2.758
4.145,1.845,129.921,0.035,2.723
-0.0,0.0,0.0,0.035,2.723
4.454,2.172,141.913,0.035,2.688
0.0,0.0,0.0,0.035,2.688
-4.53,2.408,146.91,0.035,2.653
0.0,0.0,0.0,0.035,2.653
-4.792,2.656,156.904,0.035,2.635
0.0,0.0,0.0,0.035,2.635
4.667,2.804,155.905,0.035,2.601
-0.0,0.0,0.0,0.035,2.601
4.625,3.003,157.904,0.035,2.566
-0.0,0.0,0.0,0.035,2.566
4.803,3.363,167.898,0.035,2.531
-4.231,2.963,147.91,0.035,2.531
-4.766,3.592,170.896,0.035,2.496
0.0,0.0,0.0,0.035,2.496
-4.813,3.76,174.893,0.035,2.478
2.283,1.783,82.949,0.035,2.478
4.652,3.903,173.894,0.035,2.443
-2.299,1.929,85.948,0.035,2.443
4.461,4.017,171.895,0.035,2.409
2.075,1.868,79.951,0.035,2.409
-4.167,4.024,165.899,0.035,2.374
2.234,2.158,88.946,0.035,2.374
-3.879,4.017,159.903,0.035,2.339
-2.085,2.159,85.948,0.035,2.339
3.594,3.854,150.908,0.035,2.321
-2.095,2.246,87.946,0.035,2.321
-3.595,4.135,156.904,0.035,2.286
2.267,2.608,98.94,0.035,2.286
-3.053,3.77,138.915,0.035,2.251
2.35,2.902,106.935,0.035,2.251
3.003,3.986,142.913,0.035,2.217
-3.423,4.543,162.901,0.035,2.217
2.822,4.031,140.914,0.035,2.182
-2.342,3.345,116.929,0.035,2.182
-2.693,3.993,137.916,0.035,2.164
1.834,2.72,93.943,0.035,2.164
-2.441,3.907,131.92,0.035,2.129
-1.683,2.693,90.945,0.035,2.129
2.373,4.11,135.917,0.035,2.094
-1.57,2.72,89.945,0.035,2.094
2.195,4.129,133.918,0.035,2.059
1.458,2.742,88.946,0.035,2.059
-2.004,4.109,130.92,0.035,2.025
1.3,2.666,84.948,0.035,2.025
1.858,3.985,125.923,0.035,2.007
-1.357,2.91,91.944,0.035,2.007
1.664,3.919,121.926,0.035,1.972
-2.345,5.526,171.895,0.035,1.972
-1.601,4.17,127.922,0.035,1.937
2.301,5.995,183.888,0.035,1.937
-1.375,3.993,120.926,0.035,1.902
-2.159,6.27,189.884,0.035,1.902
1.194,3.905,116.929,0.035,1.868
-1.888,6.174,184.887,0.035,1.868
0.991,3.455,102.937,0.035,1.85
1.472,5.133,152.907,0.035,1.85
-0.962,3.86,113.931,0.035,1.815
1.629,6.536,192.882,0.035,1.815
-0.813,3.823,111.932,0.035,1.78
-1.386,6.52,190.884,0.035,1.78
0.727,4.124,119.927,0.035,1.745
-1.86,10.551,306.813,0.035,1.745
-0.554,3.94,113.931,0.035,1.71
1.36,9.677,279.829,0.035,1.71
-0.498,4.053,116.929,0.035,1.693
1.204,9.803,282.828,0.035,1.693
0.344,3.929,112.931,0.035,1.658
-0.785,8.97,257.843,0.035,1.658
0.208,3.973,113.931,0.035,1.623
0.437,8.33,238.854,0.035,1.623
-0.072,4.152,118.928,0.035,1.588
0.139,7.956,227.861,0.035,1.588
0.07,4.013,114.93,0.035,1.553
0.13,7.467,213.87,0.035,1.553
-0.14,4.011,114.93,0.035,1.536
0.257,7.359,210.871,0.035,1.536
0.29,4.143,118.928,0.035,1.501
-0.472,6.754,193.882,0.035,1.501
0.42,3.991,114.93,0.035,1.466
0.7,6.664,191.883,0.035,1.466
-0.578,4.113,118.928,0.035,1.431
0.894,6.359,183.888,0.035,1.431
-0.691,3.918,113.931,0.035,1.396
-1.061,6.015,174.893,0.035,1.396
0.792,4.077,118.928,0.035,1.379
-1.212,6.235,181.889,0.035,1.379
-0.934,4.047,118.928,0.035,1.344
1.39,6.019,176.892,0.035,1.344
-1.039,3.877,114.93,0.035,1.309
1.536,5.731,169.896,0.035,1.309
1.194,3.905,116.929,0.035,1.274
-1.704,5.574,166.898,0.035,1.274
1.409,4.092,123.924,0.035,1.239
1.841,5.346,161.901,0.035,1.239
-1.456,4.001,121.926,0.035,1.222
1.886,5.182,157.904,0.035,1.222
-1.582,3.915,120.926,0.035,1.187
-2.039,5.048,155.905,0.035,1.187
1.803,4.049,126.923,0.035,1.152
-2.087,4.687,146.91,0.035,1.152
-1.897,3.89,123.924,0.035,1.117
2.203,4.517,143.912,0.035,1.117
-2.032,3.821,123.924,0.035,1.082
2.359,4.437,143.912,0.035,1.082
2.166,3.907,127.922,0.035,1.065
-2.318,4.182,136.917,0.035,1.065
2.391,3.979,132.919,0.035,1.03
2.498,4.158,138.915,0.035,1.03
-2.661,4.098,139.915,0.035,0.995
2.585,3.981,135.917,0.035,0.995
-2.782,3.974,138.915,0.035,0.96
-2.642,3.774,131.92,0.035,0.96
2.982,3.958,141.913,0.035,0.925
-2.772,3.679,131.92,0.035,0.925
3.03,3.878,140.914,0.035,0.908
2.879,3.685,133.918,0.035,0.908
-3.253,3.877,144.912,0.035,0.873
2.894,3.449,128.921,0.035,0.873
3.62,4.02,154.906,0.035,0.838
-2.966,3.294,126.923,0.035,0.838
3.903,4.042,160.902,0.035,0.803
-2.909,3.013,119.927,0.035,0.803
-4.042,3.903,160.902,0.035,0.768
3.088,2.982,122.925,0.035,0.768
-4.467,4.165,174.893,0.035,0.75
-3.19,2.975,124.924,0.035,0.75
4.767,4.144,180.89,0.035,0.716
-3.082,2.679,116.929,0.035,0.716
4.855,3.931,178.891,0.035,0.681
3.119,2.526,114.93,0.035,0.681
-5.407,4.075,193.882,0.035,0.646
3.317,2.499,118.928,0.035,0.646
5.746,4.024,200.878,0.035,0.611
-3.145,2.202,109.933,0.035,0.611
6.047,4.079,208.873,0.035,0.593
-3.327,2.244,114.93,0.035,0.593
-6.156,3.847,207.873,0.035,0.559
3.522,2.201,118.928,0.035,0.559
-6.861,3.961,226.862,0.035,0.524
-3.355,1.937,110.932,0.035,0.524
7.057,3.752,228.86,0.035,0.489
-3.667,1.95,118.928,0.035,0.489
7.748,3.779,246.85,0.035,0.454
3.639,1.775,115.929,0.035,0.454
-8.002,3.732,252.846,0.035,0.436
3.764,1.755,118.928,0.035,0.436
8.931,3.791,277.831,0.035,0.401
-3.727,1.582,115.929,0.035,0.401
9.253,3.552,283.827,0.035,0.367
-3.747,1.438,114.93,0.035,0.367
-8.184,2.818,247.849,0.035,0.332
3.861,1.329,116.929,0.035,0.332
-14.518,4.439,434.735,0.035,0.297
-3.771,1.153,112.931,0.035,0.297
15.499,4.444,461.719,0.035,0.279
-4.026,1.154,119.927,0.035,0.279
15.746,3.926,464.717,0.035,0.244
4.064,1.013,119.927,0.035,0.244
-15.396,3.272,450.725,0.035,0.209
3.994,0.849,116.929,0.035,0.209
15.638,2.757,454.723,0.035,0.175
-4.193,0.739,121.926,0.035,0.175
15.967,2.244,461.719,0.035,0.14
-4.285,0.602,123.924,0.035,0.14
-15.899,1.952,458.72,0.035,0.122
4.295,0.527,123.924,0.035,0.122
-15.888,1.39,456.722,0.035,0.087
-4.381,0.383,125.923,0.035,0.087
15.823,0.829,453.723,0.035,0.052
-4.6,0.241,131.92,0.035,0.052
15.772,0.275,451.725,0.035,0.017
4.606,0.08,131.92,0.035,0.017
-32.018,0.0,457.882,0.07,0.0
9.696,0.0,138.661,0.07,0.0
-32.153,0.561,459.877,0.07,0.017
31.688,2.772,454.889,0.07,0.087
-8.895,0.778,127.688,0.07,0.087
-31.641,3.885,455.887,0.07,0.122
8.655,1.063,124.696,0.07,0.122
-31.762,5.031,459.877,0.07,0.157
-8.337,1.32,120.705,0.07,0.157
31.669,5.584,459.877,0.07,0.175
-8.312,1.466,120.705,0.07,0.175
-31.66,6.729,462.87,0.07,0.209
7.915,1.682,115.717,0.07,0.209
-30.932,7.712,455.887,0.07,0.244
7.648,1.907,112.725,0.07,0.244
30.778,8.825,457.882,0.07,0.279
-7.979,2.288,118.71,0.07,0.279
31.181,10.131,468.855,0.07,0.314
-7.895,2.565,118.71,0.07,0.314
-29.35,10.106,443.916,0.07,0.332
7.717,2.657,116.715,0.07,0.332
-28.784,11.049,440.923,0.07,0.367
-7.554,2.9,115.717,0.07,0.367
22.281,9.458,346.155,0.07,0.401
-7.641,3.243,118.71,0.07,0.401
18.271,8.52,288.296,0.07,0.436
7.523,3.508,118.71,0.07,0.436
-16.865,8.226,268.345,0.07,0.454
7.273,3.547,115.717,0.07,0.454
16.506,8.777,267.347,0.07,0.489
-7.145,3.799,115.717,0.07,0.489
14.197,8.196,234.428,0.07,0.524
-6.706,3.871,110.73,0.07,0.524
-13.843,8.65,233.43,0.07,0.559
7.04,4.399,118.71,0.07,0.559
-13.185,8.894,227.445,0.07,0.593
-6.94,4.681,119.708,0.07,0.593
-6.8,4.761,118.71,0.07,0.611
11.922,8.984,213.479,0.07,0.646
6.462,4.87,115.717,0.07,0.646
-11.113,8.999,204.501,0.07,0.681
6.505,5.268,119.708,0.07,0.681
-6.423,5.583,121.703,0.07,0.716
6.428,5.994,125.693,0.07,0.75
6.323,6.106,125.693,0.07,0.768
-8.577,8.882,176.569,0.07,0.803
-6.299,6.523,129.683,0.07,0.803
-5.928,6.584,126.691,0.07,0.838
7.398,8.817,164.598,0.07,0.873
6.008,7.16,133.674,0.07,0.873
-6.7,8.575,155.62,0.07,0.908
6.055,7.751,140.657,0.07,0.908
6.122,8.743,152.627,0.07,0.96
5.642,8.057,140.657,0.07,0.96
5.433,8.366,142.652,0.07,0.995
-5.245,8.73,145.644,0.07,1.03
-5.107,9.213,150.632,0.07,1.065
4.945,9.3,150.632,0.07,1.082
-4.312,8.84,140.657,0.07,1.117
4.923,10.094,160.608,0.07,1.117
3.972,8.922,139.659,0.07,1.152
-4.625,10.387,162.603,0.07,1.152
3.475,8.602,132.676,0.07,1.187
-4.312,10.672,164.598,0.07,1.187
4.127,11.34,172.579,0.07,1.222
2.631,8.605,128.686,0.07,1.274
-3.691,12.074,180.559,0.07,1.274
3.268,12.196,180.559,0.07,1.309
3.013,13.05,191.532,0.07,1.344
-2.729,14.037,204.501,0.07,1.379
-2.324,14.675,212.481,0.07,1.414
-1.633,15.54,223.454,0.07,1.466
-1.129,16.144,231.435,0.07,1.501
-0.295,8.435,120.705,0.07,1.536
0.604,17.289,247.396,0.07,1.536
0.0,17.3,247.396,0.07,1.571
-1.03,19.644,281.313,0.07,1.623
-1.933,22.098,317.225,0.07,1.658
-2.77,13.032,190.535,0.07,1.78
2.781,8.558,128.686,0.07,1.885
-3.275,8.531,130.681,0.07,1.937
2.4,6.252,95.766,0.07,1.937
4.569,7.914,130.681,0.07,2.094
-3.313,5.739,94.769,0.07,2.094
-5.656,8.385,144.647,0.07,2.164
3.862,5.725,98.759,0.07,2.164
5.863,8.07,142.652,0.07,2.199
6.045,8.022,143.649,0.07,2.217
-6.321,7.806,143.649,0.07,2.251
4.214,5.204,95.766,0.07,2.251
7.048,8.107,153.625,0.07,2.286
7.517,8.061,157.615,0.07,2.321
-7.695,7.695,155.62,0.07,2.356
4.489,4.489,90.778,0.07,2.356
-8.53,8.238,169.586,0.07,2.374
8.657,7.795,166.593,0.07,2.409
-8.764,7.354,163.601,0.07,2.443
4.649,3.901,86.788,0.07,2.443
-10.389,8.117,188.54,0.07,2.478
4.782,3.736,86.788,0.07,2.478
10.666,7.749,188.54,0.07,2.513
10.857,7.602,189.537,0.07,2.531
-10.228,7.162,178.564,0.07,2.531
-11.116,7.218,189.537,0.07,2.566
0.0,0.0,0.0,0.07,2.566
-10.404,6.251,173.576,0.07,2.601
10.86,6.02,177.566,0.07,2.635
-0.0,0.0,0.0,0.07,2.635
10.815,5.51,173.576,0.07,2.67
-0.0,0.0,0.0,0.07,2.67
10.658,5.198,169.586,0.07,2.688
0.0,0.0,0.0,0.07,2.688
-10.515,4.681,164.598,0.07,2.723
0.0,0.0,0.0,0.07,2.723
-10.025,4.05,154.622,0.07,2.758
0.0,0.0,0.0,0.07,2.758
9.242,3.364,140.657,0.07,2.793
-0.0,0.0,0.0,0.07,2.793
10.747,3.492,161.605,0.07,2.827
-0.0,0.0,0.0,0.07,2.827
10.473,3.202,156.618,0.07,2.845
-0.0,0.0,0.0,0.07,2.845
-11.05,2.961,163.601,0.07,2.88
0.0,0.0,0.0,0.07,2.88
-10.875,2.511,159.61,0.07,2.915
0.0,0.0,0.0,0.07,2.915
10.956,2.13,159.61,0.07,2.95
-0.0,0.0,0.0,0.07,2.95
10.955,1.735,158.613,0.07,2.985
-0.0,0.0,0.0,0.07,2.985
10.845,1.524,156.618,0.07,3.002
-0.0,0.0,0.0,0.07,3.002
-11.586,1.218,166.593,0.07,3.037
0.0,0.0,0.0,0.07,3.037
-10.786,0.754,154.622,0.07,3.072
0.0,0.0,0.0,0.07,3.072
11.085,0.387,158.613,0.07,3.107
-0.0,0.0,0.0,0.07,3.107
15.993,0.0,152.162,0.105,3.142
-0.0,0.0,0.0,0.105,3.142
16.714,0.584,159.124,0.105,3.107
-0.0,0.0,0.0,0.105,3.107
17.205,1.203,164.096,0.105,3.072
-0.0,0.0,0.0,0.105,3.072
-16.425,1.726,157.134,0.105,3.037
0.0,0.0,0.0,0.105,3.037
-16.148,2.269,155.145,0.105,3.002
0.0,0.0,0.0,0.105,3.002
17.088,3.013,165.091,0.105,2.967
-0.0,0.0,0.0,0.105,2.967
16.109,3.131,156.14,0.105,2.95
-0.0,0.0,0.0,0.105,2.95
16.703,3.856,163.102,0.105,2.915
-0.0,0.0,0.0,0.105,2.915
-16.458,4.41,162.107,0.105,2.88
0.0,0.0,0.0,0.105,2.88
-16.294,4.981,162.107,0.105,2.845
0.0,0.0,0.0,0.105,2.845
-15.616,5.377,157.134,0.105,2.81
0.0,0.0,0.0,0.105,2.81
15.618,5.684,158.129,0.105,2.793
-0.0,0.0,0.0,0.105,2.793
15.022,6.069,154.151,0.105,2.758
-0.0,0.0,0.0,0.105,2.758
-15.756,7.015,164.096,0.105,2.723
0.0,0.0,0.0,0.105,2.723
-15.502,7.561,164.096,0.105,2.688
0.0,0.0,0.0,0.105,2.688
-16.244,8.637,175.036,0.105,2.653
0.0,0.0,0.0,0.105,2.653
-0.0,0.0,0.0,0.105,2.601
16.043,10.418,181.998,0.105,2.566
-0.0,0.0,0.0,0.105,2.566
-15.07,10.552,175.036,0.105,2.531
8.905,6.235,103.43,0.105,2.531
-15.778,11.889,187.965,0.105,2.496
15.897,12.42,191.943,0.105,2.478
-7.496,5.856,90.501,0.105,2.478
-14.734,12.363,182.992,0.105,2.443
-14.138,12.73,181.003,0.105,2.409
7.069,6.365,90.501,0.105,2.409
13.008,12.562,172.052,0.105,2.374
-6.842,6.608,90.501,0.105,2.374
12.199,12.632,167.08,0.105,2.339
6.753,6.993,92.491,0.105,2.339
-11.691,12.537,163.102,0.105,2.321
11.178,12.859,162.107,0.105,2.286
-6.309,7.258,91.496,0.105,2.286
-9.688,12.856,153.156,0.105,2.217
-8.933,12.758,148.184,0.105,2.182
8.475,12.565,144.206,0.105,2.164
8.032,12.854,144.206,0.105,2.129
-7.631,13.217,145.2,0.105,2.094
6.968,13.106,141.222,0.105,2.059
-4.466,8.399,90.501,0.105,2.059
6.14,12.589,133.266,0.105,2.025
-6.008,12.884,135.255,0.105,2.007
-5.473,12.893,133.266,0.105,1.972
5.095,13.272,135.255,0.105,1.937
-7.005,18.249,185.976,0.105,1.937
-4.458,12.947,130.282,0.105,1.902
-3.881,12.695,126.304,0.105,1.868
-5.503,19.192,189.954,0.105,1.85
3.262,13.084,128.293,0.105,1.815
1.862,13.249,127.299,0.105,1.71
-4.132,29.397,282.444,0.105,1.71
-1.121,12.808,122.326,0.105,1.658
2.36,26.97,257.581,0.105,1.658
0.684,13.048,124.315,0.105,1.623
-1.313,25.052,238.685,0.105,1.623
-0.42,24.038,228.74,0.105,1.588
0.226,12.96,123.321,0.105,1.553
-0.398,22.784,216.806,0.105,1.553
-0.463,13.267,126.304,0.105,1.536
0.81,23.191,220.784,0.105,1.536
-0.926,13.243,126.304,0.105,1.501
-1.517,21.689,206.861,0.105,1.501
1.409,13.41,128.293,0.105,1.466
-2.142,20.375,194.926,0.105,1.466
1.833,13.042,125.31,0.105,1.431
2.72,19.357,185.976,0.105,1.431
-2.396,13.588,131.277,0.105,1.396
3.34,18.941,182.992,0.105,1.396
2.553,13.134,127.299,0.105,1.379
-3.69,18.982,183.987,0.105,1.379
3.08,13.342,130.282,0.105,1.344
4.303,18.638,181.998,0.105,1.344
-3.571,13.328,131.277,0.105,1.309
4.707,17.568,173.047,0.105,1.309
-4.034,13.195,131.277,0.105,1.274
-5.043,16.494,164.096,0.105,1.274
4.424,12.848,129.288,0.105,1.239
-5.479,15.912,160.118,0.105,1.239
-4.719,12.966,131.277,0.105,1.222
5.72,15.716,159.124,0.105,1.222
-5.13,12.696,130.282,0.105,1.187
-6.069,15.022,154.151,0.105,1.187
5.782,12.987,135.255,0.105,1.152
-6.377,14.324,149.178,0.105,1.152
6.369,13.059,138.239,0.105,1.117
6.644,13.623,144.206,0.105,1.117
-6.968,13.106,141.222,0.105,1.082
7.067,13.29,143.211,0.105,1.082
7.247,13.073,142.217,0.105,1.065
-7.145,12.891,140.228,0.105,1.065
7.591,12.633,140.228,0.105,1.03
7.483,12.454,138.239,0.105,1.03
-8.312,12.799,145.2,0.105,0.995
7.629,11.747,133.266,0.105,0.995
-8.873,12.672,147.189,0.105,0.96
-7.854,11.217,130.282,0.105,0.96
9.625,12.772,152.162,0.105,0.925
-8.115,10.769,128.293,0.105,0.925
-10.297,13.179,159.124,0.105,0.908
8.173,10.461,126.304,0.105,0.908
-10.482,12.491,155.145,0.105,0.873
-8.466,10.089,125.31,0.105,0.873
11.611,12.895,165.091,0.105,0.838
-8.743,9.71,124.315,0.105,0.838
12.344,12.783,169.069,0.105,0.803
8.931,9.249,122.326,0.105,0.803
-13.008,12.562,172.052,0.105,0.768
9.173,8.859,121.332,0.105,0.768
14.143,13.188,183.987,0.105,0.75
-9.479,8.84,123.321,0.105,0.75
14.594,12.687,183.987,0.105,0.716
9.467,8.229,119.343,0.105,0.716
-15.841,12.827,193.932,0.105,0.681
9.748,7.894,119.343,0.105,0.681
-16.362,12.33,194.926,0.105,0.646
-9.767,7.36,116.359,0.105,0.646
18.409,12.89,213.822,0.105,0.611
-9.932,6.955,115.365,0.105,0.611
-18.545,12.509,212.828,0.105,0.593
10.312,6.956,118.348,0.105,0.593
-20.3,12.685,227.746,0.105,0.559
-10.283,6.425,115.365,0.105,0.559
21.726,12.543,238.685,0.105,0.524
-10.591,6.115,116.359,0.105,0.524
22.335,11.876,240.674,0.105,0.489
10.983,5.84,118.348,0.105,0.489
-24.427,11.914,258.576,0.105,0.454
10.992,5.361,116.359,0.105,0.454
26.052,12.148,273.494,0.105,0.436
-11.084,5.169,116.359,0.105,0.436
27.23,11.558,281.45,0.105,0.401
11.45,4.86,118.348,0.105,0.401
-28.983,11.126,295.373,0.105,0.367
11.71,4.495,119.343,0.105,0.367
-42.301,14.565,425.655,0.105,0.332
-11.86,4.084,119.343,0.105,0.332
41.584,12.713,413.721,0.105,0.297
-11.995,3.667,119.343,0.105,0.297
-48.732,13.974,482.343,0.105,0.279
12.058,3.457,119.343,0.105,0.279
-49.393,12.315,484.332,0.105,0.244
-12.272,3.06,120.337,0.105,0.244
49.384,10.497,480.354,0.105,0.209
-12.269,2.608,119.343,0.105,0.209
48.794,8.604,471.403,0.105,0.175
12.456,2.196,120.337,0.105,0.175
-49.892,7.012,479.36,0.105,0.14
12.939,1.818,124.315,0.105,0.14
49.903,6.127,478.365,0.105,0.122
13.176,1.618,126.304,0.105,0.122
49.774,4.355,475.381,0.105,0.087
-13.641,1.193,130.282,0.105,0.087
-49.479,2.593,471.403,0.105,0.052
13.779,0.722,131.277,0.105,0.052
-49.434,0.863,470.409,0.105,0.017
-13.691,0.239,130.282,0.105,0.017
-65.69,0.0,467.407,0.14,0.0
-18.649,0.0,132.696,0.14,0.0
66.236,1.156,471.368,0.14,0.017
-18.646,0.325,132.696,0.14,0.017
-66.434,3.482,473.348,0.14,0.052
18.068,0.947,128.735,0.14,0.052
-17.192,1.504,122.793,0.14,0.087
65.476,8.039,469.387,0.14,0.122
-17.405,2.137,124.774,0.14,0.122
-65.568,10.385,472.358,0.14,0.157
-66.062,11.649,477.309,0.14,0.175
-16.858,2.973,121.803,0.14,0.175
65.752,13.976,478.299,0.14,0.209
-64.684,16.127,474.338,0.14,0.244
16.07,4.007,117.842,0.14,0.244
-64.884,18.605,480.28,0.14,0.279
16.054,4.603,118.832,0.14,0.279
61.813,20.084,462.455,0.14,0.314
-15.751,5.118,117.842,0.14,0.314
58.163,20.027,437.698,0.14,0.332
15.265,5.256,114.871,0.14,0.332
15.202,5.835,115.861,0.14,0.367
-39.33,16.694,304.012,0.14,0.401
35.948,16.763,282.226,0.14,0.436
-14.632,6.823,114.871,0.14,0.436
-34.149,16.656,270.343,0.14,0.454
14.51,7.077,114.871,0.14,0.454
-32.81,17.445,264.402,0.14,0.489
-14.254,7.579,114.871,0.14,0.489
29.409,16.979,241.625,0.14,0.524
-13.981,8.072,114.871,0.14,0.524
28.444,17.774,238.655,0.14,0.559
13.809,8.629,115.861,0.14,0.559
-26.422,17.822,226.771,0.14,0.593
13.961,9.417,119.822,0.14,0.593
24.397,17.083,211.917,0.14,0.611
-13.908,9.739,120.813,0.14,0.611
24.342,18.343,216.869,0.14,0.646
13.449,10.135,119.822,0.14,0.646
-21.74,17.604,199.044,0.14,0.681
13.087,10.598,119.822,0.14,0.681
-20.692,17.987,195.083,0.14,0.716
-12.814,11.139,120.813,0.14,0.716
19.237,17.939,187.161,0.14,0.75
-12.621,11.77,122.793,0.14,0.75
-18.221,17.595,180.229,0.14,0.768
12.214,11.795,120.813,0.14,0.768
-17.885,18.521,183.2,0.14,0.803
-12.375,12.814,126.754,0.14,0.803
16.297,18.1,173.297,0.14,0.838
14.761,17.591,163.394,0.14,0.873
-13.881,17.767,160.423,0.14,0.908
11.739,15.025,135.667,0.14,0.908
12.982,17.228,153.492,0.14,0.925
-11.391,15.116,134.676,0.14,0.925
12.613,18.013,156.462,0.14,0.96
11.096,15.847,137.647,0.14,0.96
-11.597,17.858,151.511,0.14,0.995
10.763,16.574,140.618,0.14,0.995
9.716,17.528,142.599,0.14,1.065
-9.67,18.187,146.56,0.14,1.082
9.866,18.555,149.53,0.14,1.082
-9.029,18.513,146.56,0.14,1.117
-9.578,19.639,155.472,0.14,1.117
7.925,17.8,138.638,0.14,1.152
7.247,17.936,137.647,0.14,1.187
-6.474,17.786,134.676,0.14,1.222
8.235,22.625,171.316,0.14,1.222
-7.975,23.16,174.287,0.14,1.239
5.575,18.234,135.667,0.14,1.274
7.487,24.489,182.209,0.14,1.274
-4.755,17.745,130.715,0.14,1.309
6.664,24.87,183.2,0.14,1.309
-4.007,17.358,126.754,0.14,1.344
-5.948,25.765,188.151,0.14,1.344
3.426,17.623,127.745,0.14,1.379
-5.311,27.323,198.054,0.14,1.379
2.874,18.145,130.715,0.14,1.414
4.616,29.141,209.937,0.14,1.414
-2.518,17.916,128.735,0.14,1.431
1.877,17.855,127.745,0.14,1.466
-3.317,31.558,225.781,0.14,1.466
1.252,17.91,127.745,0.14,1.501
2.204,31.515,224.791,0.14,1.501
-0.617,17.664,125.764,0.14,1.536
-0.0,18.093,128.735,0.14,1.571
-0.0,35.628,253.509,0.14,1.571
-0.304,17.394,123.784,0.14,1.588
0.675,38.684,275.295,0.14,1.588
0.94,17.929,127.745,0.14,1.623
1.54,17.608,125.764,0.14,1.658
3.784,43.257,308.964,0.14,1.658
-2.205,17.958,128.735,0.14,1.693
3.46,28.18,202.015,0.14,1.693
-2.7,17.045,122.793,0.14,1.728
3.045,17.269,124.774,0.14,1.745
-3.733,17.561,127.745,0.14,1.78
5.614,26.41,192.112,0.14,1.78
-4.411,17.69,129.725,0.14,1.815
-6.397,25.657,188.151,0.14,1.815
4.949,17.258,127.745,0.14,1.85
-7.289,25.419,188.151,0.14,1.85
-5.591,17.207,128.735,0.14,1.885
-6.026,17.502,131.706,0.14,1.902
8.518,24.739,186.17,0.14,1.902
6.584,17.151,130.715,0.14,1.937
-5.287,13.773,104.968,0.14,1.937
5.275,12.427,96.056,0.14,1.972
-7.823,16.776,131.706,0.14,2.007
5.705,12.235,96.056,0.14,2.007
8.656,16.989,135.667,0.14,2.042
9.147,17.204,138.638,0.14,2.059
6.795,12.78,102.988,0.14,2.059
-9.742,16.874,138.638,0.14,2.094
7.237,12.535,102.988,0.14,2.094
-11.063,17.704,148.54,0.14,2.129
-7.818,12.511,104.968,0.14,2.129
11.596,17.192,147.55,0.14,2.164
-9.495,14.076,120.813,0.14,2.164
12.025,16.551,145.569,0.14,2.199
9.08,12.498,109.92,0.14,2.199
-12.312,16.339,145.569,0.14,2.217
-9.464,12.56,111.9,0.14,2.217
12.875,15.899,145.569,0.14,2.251
-8.758,10.816,99.027,0.14,2.251
8.583,9.873,93.085,0.14,2.286
-15.092,16.184,157.453,0.14,2.321
8.732,9.364,91.105,0.14,2.321
16.139,16.139,162.404,0.14,2.356
-9.251,9.251,93.085,0.14,2.356
17.119,16.532,169.336,0.14,2.374
9.31,8.991,92.095,0.14,2.374
17.582,15.831,168.346,0.14,2.409
8.998,8.102,86.153,0.14,2.409
-19.404,16.281,180.229,0.14,2.443
-9.275,7.783,86.153,0.14,2.443
20.728,16.194,187.161,0.14,2.478
-9.651,7.54,87.144,0.14,2.478
19.253,13.988,169.336,0.14,2.513
-22.345,15.646,194.093,0.14,2.531
21.889,15.327,190.131,0.14,2.531
-22.294,14.478,189.141,0.14,2.566
-0.0,0.0,0.0,0.14,2.601
-22.884,12.685,186.17,0.14,2.635
0.0,0.0,0.0,0.14,2.635
-22.321,11.373,178.248,0.14,2.67
0.0,0.0,0.0,0.14,2.67
22.266,10.86,176.268,0.14,2.688
22.504,10.019,175.277,0.14,2.723
-0.0,0.0,0.0,0.14,2.723
22.195,8.967,170.326,0.14,2.758
0.0,0.0,0.0,0.14,2.758
-21.448,7.806,162.404,0.14,2.793
0.0,0.0,0.0,0.14,2.793
-20.648,6.709,154.482,0.14,2.827
0.0,0.0,0.0,0.14,2.827
21.029,6.429,156.462,0.14,2.845
-0.0,0.0,0.0,0.14,2.845
21.24,5.691,156.462,0.14,2.88
-0.0,0.0,0.0,0.14,2.88
20.205,4.665,147.55,0.14,2.915
0.0,0.0,0.0,0.14,2.915
-21.312,4.143,154.482,0.14,2.95
0.0,0.0,0.0,0.14,2.95
-20.756,3.287,149.53,0.14,2.985
0.0,0.0,0.0,0.14,2.985
20.535,2.886,147.55,0.14,3.002
-0.0,0.0,0.0,0.14,3.002
20.623,2.168,147.55,0.14,3.037
-0.0,0.0,0.0,0.14,3.037
20.686,1.447,147.55,0.14,3.072
0.0,0.0,0.0,0.14,3.072
-19.751,0.69,140.618,0.14,3.107
0.0,0.0,0.0,0.14,3.107
-25.874,0.0,146.736,0.175,3.142
0.0,0.0,0.0,0.175,3.142
-26.552,0.927,150.676,0.175,3.107
0.0,0.0,0.0,0.175,3.107
25.464,1.781,144.767,0.175,3.072
-0.0,0.0,0.0,0.175,3.072
25.559,2.686,145.752,0.175,3.037
-0.0,0.0,0.0,0.175,3.037
-26.482,3.722,151.66,0.175,3.002
0.0,0.0,0.0,0.175,3.002
-26.165,4.614,150.676,0.175,2.967
0.0,0.0,0.0,0.175,2.967
-26.762,5.202,154.615,0.175,2.95
0.0,0.0,0.0,0.175,2.95
25.549,5.898,148.706,0.175,2.915
-0.0,0.0,0.0,0.175,2.915
24.824,6.652,145.752,0.175,2.88
-0.0,0.0,0.0,0.175,2.88
-24.909,7.615,147.721,0.175,2.845
0.0,0.0,0.0,0.175,2.845
-25.121,8.65,150.676,0.175,2.81
0.0,0.0,0.0,0.175,2.81
-24.313,8.849,146.736,0.175,2.793
0.0,0.0,0.0,0.175,2.793
24.634,9.953,150.676,0.175,2.758
-0.0,0.0,0.0,0.175,2.758
24.43,10.877,151.66,0.175,2.723
-0.0,0.0,0.0,0.175,2.723
-24.035,11.723,151.66,0.175,2.688
-0.0,0.0,0.0,0.175,2.688
-27.291,14.511,175.296,0.175,2.653
0.0,0.0,0.0,0.175,2.653
-27.49,15.238,178.25,0.175,2.635
0.0,0.0,0.0,0.175,2.635
26.792,16.098,177.265,0.175,2.601
-0.0,0.0,0.0,0.175,2.601
27.233,17.686,184.159,0.175,2.566
28.399,18.442,192.038,0.175,2.566
-27.595,19.322,191.053,0.175,2.531
16.074,11.255,111.283,0.175,2.531
-27.598,20.796,195.977,0.175,2.496
-12.343,9.301,87.648,0.175,2.496
26.82,20.954,193.022,0.175,2.478
-12.042,9.408,86.663,0.175,2.478
-25.54,21.431,189.083,0.175,2.443
12.371,10.381,91.587,0.175,2.443
-24.39,21.961,186.129,0.175,2.409
-12.646,11.387,96.511,0.175,2.409
21.985,21.23,173.326,0.175,2.374
-12.491,12.063,98.481,0.175,2.374
20.748,21.485,169.387,0.175,2.339
14.475,14.989,118.177,0.175,2.339
-19.541,20.955,162.493,0.175,2.321
17.172,18.415,142.797,0.175,2.321
18.456,21.231,159.539,0.175,2.286
-15.152,17.43,130.979,0.175,2.286
17.376,21.457,156.584,0.175,2.251
19.998,24.696,180.22,0.175,2.251
10.659,14.146,100.45,0.175,2.217
-14.542,20.768,143.782,0.175,2.182
-18.227,26.031,180.22,0.175,2.182
14.371,21.306,145.752,0.175,2.164
-17.576,26.057,178.25,0.175,2.164
-13.527,21.648,144.767,0.175,2.129
16.748,26.802,179.235,0.175,2.129
-12.937,22.407,146.736,0.175,2.094
-15.889,27.52,180.22,0.175,2.094
11.576,21.772,139.843,0.175,2.059
-14.919,28.058,180.22,0.175,2.059
10.733,22.006,138.858,0.175,2.025
14.387,29.498,186.129,0.175,2.025
-10.127,21.718,135.903,0.175,2.007
13.577,29.115,182.189,0.175,2.007
9.228,21.739,133.934,0.175,1.972
-12.824,30.211,186.129,0.175,1.972
8.526,22.21,134.919,0.175,1.937
11.824,30.802,187.113,0.175,1.937
-7.689,22.33,133.934,0.175,1.902
10.742,31.196,187.113,0.175,1.902
-6.752,22.086,130.979,0.175,1.868
9.799,32.05,190.068,0.175,1.868
6.27,21.867,129.01,0.175,1.85
-9.142,31.882,188.098,0.175,1.85
-5.419,21.735,127.04,0.175,1.815
8.192,32.856,192.038,0.175,1.815
-4.621,21.741,126.055,0.175,1.78
-11.698,55.033,319.078,0.175,1.78
3.83,21.718,125.071,0.175,1.745
3.045,21.667,124.086,0.175,1.71
-6.839,48.664,278.701,0.175,1.71
-2.709,22.061,126.055,0.175,1.693
5.82,47.397,270.822,0.175,1.693
-1.922,21.969,125.071,0.175,1.658
-3.829,43.766,249.156,0.175,1.658
1.172,22.37,127.04,0.175,1.623
-2.172,41.445,235.369,0.175,1.623
-0.391,22.397,127.04,0.175,1.588
0.691,39.586,224.536,0.175,1.588
0.388,22.224,126.055,0.175,1.553
0.655,37.502,212.718,0.175,1.553
-0.77,22.04,125.071,0.175,1.536
1.285,36.791,208.779,0.175,1.536
1.538,22.0,125.071,0.175,1.501
-2.398,34.299,194.992,0.175,1.501
2.323,22.105,126.055,0.175,1.466
-3.069,21.839,125.071,0.175,1.431
4.568,32.5,186.129,0.175,1.431
-3.92,22.231,128.025,0.175,1.396
-5.578,31.637,182.189,0.175,1.396
4.241,21.819,126.055,0.175,1.379
-6.13,31.535,182.189,0.175,1.379
-5.039,21.826,127.04,0.175,1.344
7.031,30.456,177.265,0.175,1.344
-6.022,22.476,131.964,0.175,1.309
7.775,29.018,170.372,0.175,1.309
-6.499,21.256,126.055,0.175,1.274
-8.326,27.234,161.508,0.175,1.274
7.463,21.673,129.995,0.175,1.239
8.989,26.106,156.584,0.175,1.239
-7.899,21.702,130.979,0.175,1.222
9.384,25.782,155.6,0.175,1.222
-8.652,21.414,130.979,0.175,1.187
-10.018,24.795,151.66,0.175,1.187
9.464,21.257,131.964,0.175,1.152
-10.594,23.795,147.721,0.175,1.152
-10.353,21.226,133.934,0.175,1.117
11.19,22.943,144.767,0.175,1.117
-11.658,21.925,140.828,0.175,1.082
11.576,21.772,139.843,0.175,1.082
11.87,21.415,138.858,0.175,1.065
-11.954,21.566,139.843,0.175,1.065
12.968,21.583,142.797,0.175,1.03
12.253,20.392,134.919,0.175,1.03
-13.713,21.117,142.797,0.175,0.995
12.673,19.515,131.964,0.175,0.995
15.239,21.763,150.676,0.175,0.96
-13.147,18.776,129.995,0.175,0.96
16.198,21.496,152.645,0.175,0.925
-13.272,17.613,125.071,0.175,0.925
-16.998,21.757,156.584,0.175,0.908
13.47,17.241,124.086,0.175,0.908
17.636,21.018,155.6,0.175,0.873
-14.176,16.894,125.071,0.175,0.873
19.056,21.164,161.508,0.175,0.838
-14.292,15.873,121.131,0.175,0.838
-20.024,20.735,163.478,0.175,0.803
14.716,15.239,120.147,0.175,0.803
-22.484,21.713,177.265,0.175,0.768
-15.239,14.716,120.147,0.175,0.768
22.987,21.435,178.25,0.175,0.75
-15.367,14.33,119.162,0.175,0.75
24.245,21.076,182.189,0.175,0.716
15.858,13.785,119.162,0.175,0.716
-26.315,21.31,192.038,0.175,0.681
16.059,13.004,117.192,0.175,0.681
27.875,21.005,197.946,0.175,0.646
-16.087,12.122,114.238,0.175,0.646
30.298,21.215,209.764,0.175,0.611
16.643,11.653,115.223,0.175,0.611
-31.527,21.266,215.673,0.175,0.593
16.555,11.167,113.253,0.175,0.593
-33.723,21.072,225.521,0.175,0.559
-17.23,10.766,115.223,0.175,0.559
36.242,20.925,237.339,0.175,0.524
17.595,10.158,115.223,0.175,0.524
37.411,19.892,240.293,0.175,0.489
18.245,9.701,117.192,0.175,0.489
-40.579,19.792,256.05,0.175,0.454
-18.105,8.83,114.238,0.175,0.454
42.177,19.668,263.928,0.175,0.436
-18.413,8.586,115.223,0.175,0.436
-46.515,19.744,286.579,0.175,0.401
19.021,8.074,117.192,0.175,0.401
-48.472,18.607,294.458,0.175,0.367
19.454,7.468,118.177,0.175,0.367
79.631,27.419,477.632,0.175,0.332
-19.046,6.558,114.238,0.175,0.332
79.377,24.268,470.738,0.175,0.297
19.263,5.889,114.238,0.175,0.297
-81.625,23.405,481.571,0.175,0.279
19.53,5.6,115.223,0.175,0.279
82.392,20.543,481.571,0.175,0.244
-20.556,5.125,120.147,0.175,0.244
81.53,17.33,472.708,0.175,0.209
-20.892,4.441,121.131,0.175,0.209
-82.085,14.474,472.708,0.175,0.175
21.376,3.769,123.101,0.175,0.175
-21.323,2.997,122.116,0.175,0.14
83.419,10.243,476.647,0.175,0.122
-21.717,2.666,124.086,0.175,0.122
-83.38,7.295,474.677,0.175,0.087
21.969,1.922,125.071,0.175,0.087
-83.237,4.362,472.708,0.175,0.052
22.717,1.191,129.01,0.175,0.052
82.644,1.443,468.768,0.175,0.017
-23.265,0.406,131.964,0.175,0.017
-27.444,0.0,129.115,0.209,0.0
-99.367,1.734,467.555,0.209,0.017
27.856,0.486,131.072,0.209,0.017
-98.0,5.136,461.686,0.209,0.052
26.161,1.371,123.247,0.209,0.052
99.211,8.68,468.533,0.209,0.087
-25.476,2.229,120.312,0.209,0.087
98.847,12.137,468.533,0.209,0.122
25.589,3.142,121.29,0.209,0.122
-99.185,15.709,472.445,0.209,0.157
24.848,3.935,118.356,0.209,0.157
98.896,17.438,472.445,0.209,0.175
-24.98,4.405,119.334,0.209,0.175
98.43,20.922,473.423,0.209,0.209
-24.404,5.187,117.378,0.209,0.209
-97.438,24.294,472.445,0.209,0.244
24.208,6.036,117.378,0.209,0.244
-97.331,27.909,476.358,0.209,0.279
-23.183,6.648,113.465,0.209,0.279
93.134,30.261,460.708,0.209,0.314
-22.74,7.389,112.487,0.209,0.314
-87.873,30.257,437.232,0.209,0.332
23.0,7.92,114.443,0.209,0.332
-84.046,32.262,423.538,0.209,0.367
-22.516,8.643,113.465,0.209,0.367
92.821,39.4,474.402,0.209,0.401
-22.392,9.505,114.443,0.209,0.401
55.776,26.009,289.532,0.209,0.436
-22.047,10.28,114.443,0.209,0.436
21.864,10.664,114.443,0.209,0.454
49.198,26.159,262.144,0.209,0.489
-21.295,11.323,113.465,0.209,0.489
43.574,25.157,236.712,0.209,0.524
21.067,12.163,114.443,0.209,0.524
-42.317,26.442,234.755,0.209,0.559
20.629,12.891,114.443,0.209,0.559
-39.817,26.857,225.952,0.209,0.593
-19.995,13.486,113.465,0.209,0.593
38.15,26.713,219.105,0.209,0.611
-19.926,13.953,114.443,0.209,0.611
-36.032,27.152,212.258,0.209,0.646
19.261,14.514,113.465,0.209,0.646
-32.639,26.43,197.586,0.209,0.681
-19.551,15.832,118.356,0.209,0.681
-19.3,16.777,120.312,0.209,0.716
29.043,27.083,186.826,0.209,0.75
19.007,17.724,122.268,0.209,0.75
-27.668,26.719,180.957,0.209,0.768
18.545,17.909,121.29,0.209,0.768
26.719,27.668,180.957,0.209,0.803
-18.342,18.994,124.225,0.209,0.803
23.929,26.575,168.241,0.209,0.838
18.225,20.241,128.137,0.209,0.838
-22.719,27.076,166.285,0.209,0.873
17.641,21.024,129.115,0.209,0.873
-20.737,26.542,158.46,0.209,0.908
-17.792,22.773,135.963,0.209,0.908
20.145,26.733,157.482,0.209,0.925
-16.767,22.25,131.072,0.209,0.925
-18.842,26.909,154.547,0.209,0.96
16.815,24.014,137.919,0.209,0.96
-17.325,26.679,149.657,0.209,0.995
16.419,25.284,141.831,0.209,0.995
-16.169,26.91,147.7,0.209,1.03
-15.848,26.376,144.766,0.209,1.03
14.616,26.367,141.831,0.209,1.065
15.22,27.458,147.7,0.209,1.065
-14.446,27.169,144.766,0.209,1.082
14.739,27.72,147.7,0.209,1.082
13.033,26.722,139.875,0.209,1.117
-14.127,28.965,151.613,0.209,1.117
12.008,26.971,138.897,0.209,1.152
13.446,30.2,155.525,0.209,1.152
-10.67,26.41,134.006,0.209,1.187
13.007,32.193,163.351,0.209,1.187
-9.529,26.18,131.072,0.209,1.222
-12.515,34.386,172.154,0.209,1.222
9.003,26.146,130.094,0.209,1.239
-11.981,34.795,173.132,0.209,1.239
-8.024,26.245,129.115,0.209,1.274
11.063,36.187,178.023,0.209,1.274
-7.049,26.308,128.137,0.209,1.309
9.794,36.551,178.023,0.209,1.309
6.127,26.538,128.137,0.209,1.344
-8.793,38.086,183.892,0.209,1.344
5.078,26.124,125.203,0.209,1.379
-7.974,41.022,196.608,0.209,1.379
-4.358,27.517,131.072,0.209,1.414
6.895,43.535,207.367,0.209,1.414
3.704,26.354,125.203,0.209,1.431
-6.019,42.825,203.455,0.209,1.431
2.782,26.467,125.203,0.209,1.466
-4.912,46.731,221.061,0.209,1.466
-1.871,26.755,126.181,0.209,1.501
3.292,47.081,222.04,0.209,1.501
-0.914,26.181,123.247,0.209,1.536
-1.792,51.323,241.602,0.209,1.536
0.0,26.821,126.181,0.209,1.571
-0.0,55.305,260.187,0.209,1.571
0.464,26.609,125.203,0.209,1.588
-0.972,55.712,262.144,0.209,1.588
1.36,25.953,122.268,0.209,1.623
-3.199,61.042,287.575,0.209,1.623
-2.319,26.511,125.203,0.209,1.658
5.726,65.45,309.095,0.209,1.658
-3.193,26.002,123.247,0.209,1.693
-5.118,41.685,197.586,0.209,1.693
4.066,25.669,122.268,0.209,1.728
-6.31,39.838,189.761,0.209,1.728
-4.549,25.799,123.247,0.209,1.745
6.932,39.313,187.804,0.209,1.745
-5.62,26.438,127.159,0.209,1.78
8.343,39.25,188.782,0.209,1.78
6.488,26.024,126.181,0.209,1.815
-9.456,37.926,183.892,0.209,1.815
7.393,25.782,126.181,0.209,1.85
10.889,37.973,185.848,0.209,1.85
-8.481,26.101,129.115,0.209,1.885
12.079,37.174,183.892,0.209,1.885
9.003,26.146,130.094,0.209,1.902
-12.523,36.368,180.957,0.209,1.902
9.761,25.427,128.137,0.209,1.937
13.784,35.909,180.957,0.209,1.937
-11.13,26.22,134.006,0.209,1.972
14.948,35.215,179.979,0.209,1.972
-11.686,25.061,130.094,0.209,2.007
-15.992,34.295,178.023,0.209,2.007
12.931,25.379,134.006,0.209,2.042
-17.179,33.716,178.023,0.209,2.042
-13.568,25.517,135.963,0.209,2.059
17.765,33.411,178.023,0.209,2.059
-14.658,25.388,137.919,0.209,2.094
18.712,32.41,176.067,0.209,2.094
-19.832,31.737,176.067,0.209,2.129
17.091,25.338,143.788,0.209,2.164
19.183,28.44,161.394,0.209,2.164
-18.087,24.894,144.766,0.209,2.199
12.587,17.325,100.749,0.209,2.199
18.769,24.907,146.722,0.209,2.217
-12.763,16.937,99.771,0.209,2.217
19.365,23.914,144.766,0.209,2.251
12.692,15.673,94.88,0.209,2.251
-21.552,24.792,154.547,0.209,2.286
12.822,14.75,91.946,0.209,2.286
