x,y,z,theta,omega
0.0,0.0,157.0,0.0,0.175
0.0,0.0,159.0,0.0,0.209
-0.0,0.0,217.0,0.0,0.209
-0.0,0.0,199.0,0.0,0.244
0.0,0.0,211.0,0.0,0.244
-0.0,0.0,231.0,0.0,0.279
0.0,0.0,210.0,0.0,0.279
0.0,0.0,258.0,0.0,0.314
-0.0,0.0,213.0,0.0,0.314
0.0,0.0,267.0,0.0,0.332
-0.0,0.0,211.0,0.0,0.332
0.0,0.0,211.0,0.0,0.367
0.0,0.0,275.0,0.0,0.401
-0.0,0.0,210.0,0.0,0.401
0.0,0.0,272.0,0.0,0.436
0.0,0.0,213.0,0.0,0.436
-0.0,0.0,268.0,0.0,0.454
0.0,0.0,214.0,0.0,0.454
0.0,0.0,268.0,0.0,0.489
-0.0,0.0,209.0,0.0,0.489
0.0,0.0,267.0,0.0,0.524
-0.0,0.0,211.0,0.0,0.524
-0.0,0.0,266.0,0.0,0.559
0.0,0.0,211.0,0.0,0.559
-0.0,0.0,266.0,0.0,0.593
-0.0,0.0,266.0,0.0,0.646
0.0,0.0,211.0,0.0,0.646
-0.0,0.0,253.0,0.0,0.681
0.0,0.0,213.0,0.0,0.681
0.0,0.0,253.0,0.0,0.716
-0.0,0.0,216.0,0.0,0.716
0.0,0.0,257.0,0.0,0.75
-0.0,0.0,214.0,0.0,0.75
-0.0,0.0,258.0,0.0,0.768
0.0,0.0,221.0,0.0,0.768
-0.0,0.0,261.0,0.0,0.803
-0.0,0.0,217.0,0.0,0.803
0.0,0.0,261.0,0.0,0.838
-0.0,0.0,219.0,0.0,0.838
-0.0,0.0,263.0,0.0,0.873
0.0,0.0,216.0,0.0,0.873
-0.0,0.0,265.0,0.0,0.908
0.0,0.0,216.0,0.0,0.908
-0.0,0.0,217.0,0.0,0.925
0.0,0.0,268.0,0.0,0.96
0.0,0.0,216.0,0.0,0.96
-0.0,0.0,273.0,0.0,0.995
-0.0,0.0,218.0,0.0,1.03
0.0,0.0,175.0,0.0,1.065
0.0,0.0,213.0,0.0,1.065
0.0,0.0,210.0,0.0,1.082
-0.0,0.0,178.0,0.0,1.117
-0.0,0.0,211.0,0.0,1.117
0.0,0.0,179.0,0.0,1.152
-0.0,0.0,188.0,0.0,1.187
0.0,0.0,185.0,0.0,1.187
-0.0,0.0,195.0,0.0,1.222
-0.0,0.0,189.0,0.0,1.222
0.0,0.0,191.0,0.0,1.239
-0.0,0.0,185.0,0.0,1.239
0.0,0.0,194.0,0.0,1.274
0.0,0.0,179.0,0.0,1.274
-0.0,0.0,199.0,0.0,1.309
0.0,0.0,181.0,0.0,1.309
0.0,0.0,205.0,0.0,1.344
-0.0,0.0,176.0,0.0,1.344
0.0,0.0,214.0,0.0,1.379
-0.0,0.0,173.0,0.0,1.379
-0.0,0.0,222.0,0.0,1.414
-0.0,0.0,225.0,0.0,1.431
-0.0,0.0,167.0,0.0,1.466
0.0,0.0,162.0,0.0,1.501
-0.0,0.0,242.0,0.0,1.536
-0.0,0.0,161.0,0.0,1.536
-0.0,0.0,262.0,0.0,1.588
0.0,0.0,265.0,0.0,1.623
-0.0,0.0,158.0,0.0,1.623
0.0,0.0,156.0,0.0,1.658
-0.0,0.0,255.0,0.0,1.693
0.0,0.0,153.0,0.0,1.693
0.0,0.0,249.0,0.0,1.728
-0.0,0.0,151.0,0.0,1.728
0.0,0.0,245.0,0.0,1.745
0.0,0.0,148.0,0.0,1.745
-0.0,0.0,243.0,0.0,1.78
0.0,0.0,145.0,0.0,1.78
0.0,0.0,238.0,0.0,1.815
-0.0,0.0,146.0,0.0,1.815
0.0,0.0,233.0,0.0,1.85
-0.0,0.0,141.0,0.0,1.85
-0.0,0.0,231.0,0.0,1.885
0.0,0.0,141.0,0.0,1.885
-0.0,0.0,228.0,0.0,1.902
-0.0,0.0,145.0,0.0,1.902
-0.0,0.0,151.0,0.0,1.937
0.0,0.0,225.0,0.0,1.972
0.0,0.0,167.0,0.0,1.972
-0.0,0.0,223.0,0.0,2.007
0.0,0.0,178.0,0.0,2.007
0.0,0.0,216.0,0.0,2.042
-0.0,0.0,177.0,0.0,2.042
0.0,0.0,217.0,0.0,2.059
0.0,0.0,174.0,0.0,2.059
-0.0,0.0,214.0,0.0,2.094
0.0,0.0,173.0,0.0,2.094
-0.0,0.0,209.0,0.0,2.129
-0.0,0.0,170.0,0.0,2.129
0.0,0.0,212.0,0.0,2.164
-0.0,0.0,168.0,0.0,2.164
-0.0,0.0,208.0,0.0,2.199
-0.0,0.0,207.0,0.0,2.217
0.0,0.0,204.0,0.0,2.251
0.0,0.0,206.0,0.0,2.286
0.0,0.0,175.0,0.0,2.286
-0.0,0.0,202.0,0.0,2.409
0.0,0.0,178.0,0.0,2.409
-0.0,0.0,202.0,0.0,2.443
-0.0,0.0,175.0,0.0,2.478
0.0,0.0,205.0,0.0,2.513
0.0,0.0,170.0,0.0,2.513
-0.0,0.0,180.0,0.0,2.566
0.0,0.0,199.0,0.0,2.601
0.0,0.0,179.0,0.0,2.601
-0.0,0.0,194.0,0.0,2.635
0.0,0.0,175.0,0.0,2.635
-0.0,0.0,176.0,0.0,2.67
0.0,0.0,198.0,0.0,2.688
-0.0,0.0,182.0,0.0,2.758
0.0,0.0,212.0,0.0,2.793
0.0,0.0,184.0,0.0,2.827
-0.0,0.0,233.0,0.0,2.845
-0.0,0.0,182.0,0.0,2.845
0.0,0.0,232.0,0.0,2.88
0.0,0.0,178.0,0.0,2.915
0.0,0.0,179.0,0.0,2.95
0.0,0.0,230.0,0.0,2.985
-0.0,0.0,183.0,0.0,2.985
0.0,0.0,235.0,0.0,3.002
-0.0,0.0,181.0,0.0,3.002
0.0,0.0,184.0,0.0,3.037
-0.0,0.0,225.0,0.0,3.072
-0.0,0.0,193.0,0.0,3.072
0.0,0.0,213.0,0.0,3.107
-0.0,0.0,193.0,0.0,3.107
7.224,0.0,206.874,0.035,3.142
4.153,0.0,118.928,0.035,3.142
-7.743,0.27,221.865,0.035,3.107
4.011,0.14,114.93,0.035,3.107
-7.729,0.54,221.865,0.035,3.072
7.705,0.81,221.865,0.035,3.037
-4.2,0.441,120.926,0.035,3.037
-7.638,1.073,220.865,0.035,3.002
-7.63,1.345,221.865,0.035,2.967
-4.365,0.77,126.923,0.035,2.967
7.057,1.372,205.875,0.035,2.95
-6.631,1.531,194.881,0.035,2.915
4.455,1.028,130.92,0.035,2.915
-6.472,1.734,191.883,0.035,2.88
4.686,1.256,138.915,0.035,2.88
6.408,1.959,191.883,0.035,2.845
-4.806,1.469,143.912,0.035,2.845
6.237,2.147,188.885,0.035,2.81
-5.049,1.738,152.907,0.035,2.81
-5.969,2.172,181.889,0.035,2.793
5.898,2.626,184.887,0.035,2.723
-5.516,2.456,172.895,0.035,2.723
5.646,2.754,179.89,0.035,2.688
-5.639,2.998,182.889,0.035,2.653
-5.978,3.179,193.882,0.035,2.653
5.616,3.113,183.888,0.035,2.635
-6.502,3.604,212.87,0.035,2.635
6.432,3.865,214.869,0.035,2.601
5.203,3.643,181.889,0.035,2.531
-7.204,5.044,251.846,0.035,2.531
5.073,3.823,181.889,0.035,2.496
6.875,5.372,249.848,0.035,2.478
-4.759,3.993,177.892,0.035,2.443
-6.71,5.631,250.847,0.035,2.443
-6.354,5.721,244.851,0.035,2.409
-4.393,4.243,174.893,0.035,2.374
6.151,5.94,244.851,0.035,2.374
-4.194,4.343,172.895,0.035,2.339
-5.891,6.1,242.852,0.035,2.339
4.094,4.39,171.895,0.035,2.321
-5.808,6.228,243.851,0.035,2.321
5.449,6.269,237.855,0.035,2.286
-3.646,4.502,165.899,0.035,2.251
-5.02,6.661,238.854,0.035,2.217
3.523,5.031,175.893,0.035,2.182
-4.804,6.861,239.854,0.035,2.182
-3.259,4.832,166.898,0.035,2.164
4.606,6.828,235.856,0.035,2.164
-3.199,5.12,172.895,0.035,2.129
4.439,7.103,239.854,0.035,2.129
-4.24,7.344,242.852,0.035,2.094
-2.736,5.146,166.898,0.035,2.059
3.916,7.365,238.854,0.035,2.059
-2.601,5.332,169.896,0.035,2.025
1.977,5.742,173.894,0.035,1.902
-2.784,8.085,244.851,0.035,1.902
2.53,8.277,247.849,0.035,1.868
-1.664,5.804,172.895,0.035,1.85
2.366,8.253,245.85,0.035,1.85
-1.503,6.028,177.892,0.035,1.815
-2.085,8.364,246.85,0.035,1.815
1.054,5.98,173.894,0.035,1.745
-0.874,6.221,179.89,0.035,1.71
0.787,6.408,184.887,0.035,1.693
-0.115,6.56,187.885,0.035,1.553
-0.697,6.629,190.884,0.035,1.466
1.036,9.857,283.827,0.035,1.466
2.471,6.116,188.885,0.035,1.187
3.621,6.81,220.865,0.035,1.082
-5.418,6.017,231.859,0.035,0.838
-6.061,6.276,249.848,0.035,0.803
5.874,5.673,233.857,0.035,0.768
-6.527,6.303,259.842,0.035,0.768
-7.875,6.846,298.818,0.035,0.716
-8.977,7.27,330.798,0.035,0.681
6.466,4.873,231.859,0.035,0.646
9.114,6.868,326.801,0.035,0.646
-7.042,4.066,232.858,0.035,0.524
-7.272,3.867,235.856,0.035,0.489
9.963,4.646,314.808,0.035,0.436
10.119,4.295,314.808,0.035,0.401
7.656,2.636,231.859,0.035,0.332
-10.735,3.078,319.805,0.035,0.279
-10.964,1.933,318.806,0.035,0.175
8.12,0.426,232.858,0.035,0.052
-7.528,0.395,215.868,0.035,0.052
-16.044,0.0,229.44,0.07,0.0
12.138,0.0,173.576,0.07,0.0
-16.042,0.28,229.44,0.07,0.017
-12.694,0.222,181.557,0.07,0.017
16.022,0.84,229.44,0.07,0.052
-13.096,0.686,187.542,0.07,0.052
15.983,1.398,229.44,0.07,0.087
12.578,1.1,180.559,0.07,0.087
-16.063,1.972,231.435,0.07,0.122
11.978,1.471,172.579,0.07,0.122
15.984,2.532,231.435,0.07,0.157
-13.159,2.084,190.535,0.07,0.157
16.006,2.822,232.432,0.07,0.175
14.907,2.629,216.471,0.07,0.175
-15.898,3.379,232.432,0.07,0.209
15.216,3.234,222.457,0.07,0.209
-15.567,3.881,229.44,0.07,0.244
-21.659,5.4,319.22,0.07,0.244
15.557,4.461,231.435,0.07,0.279
-21.659,6.21,322.213,0.07,0.279
-15.325,4.979,230.437,0.07,0.314
21.429,6.963,322.213,0.07,0.314
-21.37,7.358,323.211,0.07,0.332
14.961,6.351,232.432,0.07,0.401
-14.667,6.839,231.435,0.07,0.436
19.978,9.316,315.23,0.07,0.436
14.546,7.094,231.435,0.07,0.454
-19.938,9.724,317.225,0.07,0.454
14.351,7.63,232.432,0.07,0.489
-19.524,10.381,316.228,0.07,0.489
-14.015,8.092,231.435,0.07,0.524
18.909,10.917,312.238,0.07,0.524
-13.724,8.576,231.435,0.07,0.559
-18.634,11.644,314.233,0.07,0.559
13.475,9.089,232.432,0.07,0.593
-18.217,12.287,314.233,0.07,0.593
-13.314,9.322,232.432,0.07,0.611
18.285,12.803,319.22,0.07,0.611
-12.98,9.781,232.432,0.07,0.646
17.827,13.434,319.22,0.07,0.646
12.631,10.229,232.432,0.07,0.681
-17.293,14.004,318.223,0.07,0.681
12.266,10.663,232.432,0.07,0.716
17.163,14.919,325.206,0.07,0.716
-11.887,11.085,232.432,0.07,0.75
11.641,11.242,231.435,0.07,0.768
-16.709,16.136,332.189,0.07,0.768
-16.185,16.76,333.186,0.07,0.803
-10.969,12.182,234.428,0.07,0.838
-10.492,12.504,233.43,0.07,0.873
-12.196,14.535,271.337,0.07,0.873
10.135,12.973,235.425,0.07,0.908
10.747,14.262,255.376,0.07,0.925
9.199,16.595,271.337,0.07,1.065
-8.501,17.43,277.323,0.07,1.117
-6.554,14.721,230.437,0.07,1.152
8.086,18.162,284.306,0.07,1.152
-6.01,14.876,229.44,0.07,1.187
7.578,18.756,289.294,0.07,1.187
-7.086,19.468,296.277,0.07,1.222
-4.815,13.983,211.484,0.07,1.239
-4.242,13.875,207.493,0.07,1.274
6.322,20.68,309.245,0.07,1.274
3.503,13.072,193.527,0.07,1.309
-5.795,21.629,320.218,0.07,1.309
2.981,12.914,189.537,0.07,1.344
5.116,22.158,325.206,0.07,1.344
-2.529,13.01,189.537,0.07,1.379
4.366,22.46,327.201,0.07,1.379
-2.095,13.228,191.532,0.07,1.414
-3.481,21.978,318.223,0.07,1.414
1.854,13.194,190.535,0.07,1.431
-3.029,21.552,311.24,0.07,1.431
-1.393,13.25,190.535,0.07,1.466
2.282,21.714,312.238,0.07,1.466
-0.925,13.221,189.537,0.07,1.501
-1.479,21.154,303.259,0.07,1.501
-0.718,20.566,294.281,0.07,1.536
0.0,13.323,190.535,0.07,1.571
0.0,20.508,293.284,0.07,1.571
0.233,13.321,190.535,0.07,1.588
-0.346,19.808,283.308,0.07,1.588
1.03,19.644,281.313,0.07,1.623
1.69,19.319,277.323,0.07,1.658
1.573,12.809,184.549,0.07,1.693
-2.346,19.109,275.328,0.07,1.693
-2.008,12.677,183.552,0.07,1.728
2.925,18.465,267.347,0.07,1.728
-2.205,12.503,181.557,0.07,1.745
3.246,18.411,267.347,0.07,1.745
2.64,12.418,181.557,0.07,1.78
-3.8,17.877,261.362,0.07,1.78
3.105,12.454,183.552,0.07,1.815
4.388,17.598,259.367,0.07,1.815
-3.422,11.936,177.566,0.07,1.85
4.961,17.3,257.372,0.07,1.85
-3.686,11.345,170.583,0.07,1.885
-5.411,16.652,250.389,0.07,1.885
4.042,11.74,177.566,0.07,1.902
-5.678,16.489,249.391,0.07,1.902
-4.4,11.462,175.571,0.07,1.937
6.2,16.151,247.396,0.07,1.937
-4.824,11.365,176.569,0.07,1.972
-6.705,15.796,245.401,0.07,1.972
5.189,11.127,175.571,0.07,2.007
-7.252,15.552,245.401,0.07,2.007
-5.447,10.69,171.581,0.07,2.042
7.822,15.352,246.398,0.07,2.042
-5.6,10.532,170.583,0.07,2.059
7.86,14.782,239.415,0.07,2.059
5.964,10.33,170.583,0.07,2.094
-8.406,14.559,240.413,0.07,2.094
6.321,10.116,170.583,0.07,2.129
8.909,14.257,240.413,0.07,2.129
-6.553,9.716,167.591,0.07,2.164
9.362,13.879,239.415,0.07,2.164
6.97,9.594,169.586,0.07,2.199
-9.881,13.601,240.413,0.07,2.199
7.179,9.526,170.583,0.07,2.217
-10.033,13.315,238.418,0.07,2.217
-7.507,9.27,170.583,0.07,2.251
10.536,13.011,239.415,0.07,2.251
-7.826,9.002,170.583,0.07,2.286
-10.938,12.582,238.418,0.07,2.286
8.421,9.03,176.569,0.07,2.321
-11.323,12.142,237.42,0.07,2.321
8.484,8.484,171.581,0.07,2.356
11.739,11.739,237.42,0.07,2.356
-8.43,8.141,167.591,0.07,2.374
11.993,11.581,238.418,0.07,2.374
8.813,7.935,169.586,0.07,2.409
-12.441,11.202,239.415,0.07,2.409
9.191,7.712,171.581,0.07,2.443
12.985,10.896,242.408,0.07,2.443
-9.455,7.387,171.581,0.07,2.478
13.412,10.479,243.406,0.07,2.478
9.82,7.134,173.576,0.07,2.513
-13.77,10.004,243.406,0.07,2.513
10.0,7.002,174.574,0.07,2.531
-14.0,9.803,244.403,0.07,2.531
10.413,6.763,177.566,0.07,2.566
14.567,9.46,248.393,0.07,2.566
-10.942,6.575,182.554,0.07,2.601
14.709,8.838,245.401,0.07,2.601
11.287,6.256,184.549,0.07,2.635
-15.619,8.658,255.376,0.07,2.635
11.374,5.795,182.554,0.07,2.67
16.036,8.171,257.372,0.07,2.67
-11.348,5.535,180.559,0.07,2.688
15.361,7.492,244.403,0.07,2.688
11.789,5.249,184.549,0.07,2.723
-14.912,6.639,233.43,0.07,2.723
11.771,4.756,181.557,0.07,2.758
-13.712,5.54,211.484,0.07,2.758
-11.864,4.318,180.559,0.07,2.793
12.782,4.652,194.525,0.07,2.793
-12.074,3.923,181.557,0.07,2.827
-11.809,3.837,177.566,0.07,2.827
12.474,3.814,186.544,0.07,2.845
-11.074,3.386,165.596,0.07,2.845
-12.33,3.304,182.554,0.07,2.88
10.848,2.907,160.608,0.07,2.88
-12.506,2.887,183.552,0.07,2.915
-10.467,2.417,153.625,0.07,2.915
13.147,2.556,191.532,0.07,2.95
-9.997,1.943,145.644,0.07,2.95
13.159,2.084,190.535,0.07,2.985
9.646,1.528,139.659,0.07,2.985
-13.263,1.864,191.532,0.07,3.002
9.256,1.301,133.674,0.07,3.002
13.528,1.422,194.525,0.07,3.037
-9.088,0.955,130.681,0.07,3.037
15.587,1.09,223.454,0.07,3.072
8.907,0.623,127.688,0.07,3.072
-15.477,0.54,221.459,0.07,3.107
8.714,0.304,124.696,0.07,3.107
-21.637,0.0,205.866,0.105,3.142
12.857,0.0,122.326,0.105,3.142
21.624,0.755,205.866,0.105,3.107
-12.013,0.42,114.37,0.105,3.107
21.48,1.502,204.872,0.105,3.072
11.991,0.839,114.37,0.105,3.072
-21.727,2.284,207.855,0.105,3.037
12.683,1.333,121.332,0.105,3.037
21.427,3.011,205.866,0.105,3.002
-12.628,1.775,121.332,0.105,3.002
21.515,3.794,207.855,0.105,2.967
-12.97,2.287,125.31,0.105,2.967
-21.65,4.208,209.844,0.105,2.95
14.057,2.732,136.249,0.105,2.95
-21.185,4.891,206.861,0.105,2.915
-13.444,3.104,131.277,0.105,2.915
21.304,5.708,209.844,0.105,2.88
-14.135,3.788,139.233,0.105,2.88
-21.192,6.479,210.839,0.105,2.845
15.094,4.615,150.173,0.105,2.845
-20.656,7.113,207.855,0.105,2.81
15.813,5.445,159.124,0.105,2.81
-20.725,7.543,209.844,0.105,2.793
-15.618,5.684,158.129,0.105,2.793
20.45,8.262,209.844,0.105,2.758
15.797,6.383,162.107,0.105,2.758
-20.244,9.013,210.839,0.105,2.723
16.616,7.398,173.047,0.105,2.723
-19.635,9.577,207.855,0.105,2.688
-17.381,8.477,183.987,0.105,2.688
-18.366,9.766,197.91,0.105,2.653
-19.107,10.591,207.855,0.105,2.635
20.022,11.098,217.8,0.105,2.635
-18.905,11.359,209.844,0.105,2.601
-21.056,12.651,233.713,0.105,2.601
18.585,12.069,210.839,0.105,2.566
-21.916,14.233,248.63,0.105,2.566
-18.238,12.77,211.833,0.105,2.531
22.006,15.408,255.592,0.105,2.531
-17.531,13.21,208.85,0.105,2.496
20.87,15.727,248.63,0.105,2.496
16.062,12.549,193.932,0.105,2.478
-20.675,16.153,249.625,0.105,2.478
15.454,12.968,191.943,0.105,2.443
20.018,16.797,248.63,0.105,2.443
-14.371,12.939,183.987,0.105,2.409
19.265,17.346,246.641,0.105,2.409
-13.76,13.288,181.998,0.105,2.374
-18.347,17.717,242.663,0.105,2.374
13.361,13.835,182.992,0.105,2.339
-17.572,18.196,240.674,0.105,2.339
-12.974,13.913,181.003,0.105,2.321
16.824,18.042,234.707,0.105,2.321
-12.481,14.358,181.003,0.105,2.286
-16.458,18.933,238.685,0.105,2.286
11.972,14.785,181.003,0.105,2.251
-15.788,19.496,238.685,0.105,2.251
-11.449,15.193,181.003,0.105,2.217
14.972,19.868,236.696,0.105,2.217
-10.972,15.669,181.998,0.105,2.182
14.269,20.379,236.696,0.105,2.182
10.814,16.032,183.987,0.105,2.164
-14.028,20.798,238.685,0.105,2.164
10.192,16.311,182.992,0.105,2.129
13.349,21.363,239.68,0.105,2.129
-9.669,16.747,183.987,0.105,2.094
12.648,21.907,240.674,0.105,2.094
9.029,16.982,182.992,0.105,2.059
-11.728,22.058,237.691,0.105,2.059
8.66,17.756,187.965,0.105,2.025
-11.135,22.83,241.669,0.105,2.025
-8.261,17.715,185.976,0.105,2.007
10.911,23.4,245.647,0.105,2.007
-7.678,18.089,186.97,0.105,1.972
-9.925,23.381,241.669,0.105,1.972
7.08,18.444,187.965,0.105,1.937
-9.14,23.811,242.663,0.105,1.937
-6.398,18.581,186.97,0.105,1.902
8.406,24.412,245.647,0.105,1.902
-5.745,18.793,186.97,0.105,1.868
7.549,24.69,245.647,0.105,1.868
5.388,18.79,185.976,0.105,1.85
-7.174,25.019,247.636,0.105,1.85
4.779,19.169,187.965,0.105,1.815
-6.271,25.153,246.641,0.105,1.815
-3.977,18.711,181.998,0.105,1.78
5.477,25.766,250.62,0.105,1.78
-3.394,19.25,185.976,0.105,1.745
-4.665,26.456,255.592,0.105,1.745
2.72,19.357,185.976,0.105,1.71
-3.782,26.913,258.576,0.105,1.71
-2.357,19.194,183.987,0.105,1.693
3.35,27.286,261.559,0.105,1.693
-1.704,19.472,185.976,0.105,1.658
-2.405,27.491,262.554,0.105,1.658
1.028,19.624,186.97,0.105,1.623
-1.472,28.08,267.526,0.105,1.623
-0.345,19.753,187.965,0.105,1.588
0.498,28.532,271.504,0.105,1.588
0.348,19.962,189.954,0.105,1.553
-0.502,28.741,273.494,0.105,1.553
1.018,29.146,277.472,0.105,1.536
-1.458,20.855,198.904,0.105,1.501
2.327,22.143,211.833,0.105,1.466
-3.158,30.043,287.417,0.105,1.466
-3.157,22.462,215.811,0.105,1.431
4.292,30.536,293.384,0.105,1.431
-3.921,22.235,214.817,0.105,1.396
5.482,31.088,300.346,0.105,1.396
4.308,22.163,214.817,0.105,1.379
-6.103,31.398,304.324,0.105,1.379
5.102,22.101,215.811,0.105,1.344
7.242,31.37,306.313,0.105,1.344
-5.898,22.011,216.806,0.105,1.309
8.522,31.805,313.274,0.105,1.309
-6.601,21.592,214.817,0.105,1.274
-9.932,32.487,323.22,0.105,1.274
7.419,21.546,216.806,0.105,1.239
11.583,31.825,322.225,0.105,1.222
-12.452,30.82,316.258,0.105,1.187
9.268,20.817,216.806,0.105,1.152
-13.095,29.411,306.313,0.105,1.152
10.127,20.763,219.789,0.105,1.117
13.701,28.091,297.362,0.105,1.117
-10.698,20.12,216.806,0.105,1.082
14.477,27.226,293.384,0.105,1.082
10.997,19.839,215.811,0.105,1.065
-14.544,26.238,285.428,0.105,1.065
11.952,19.891,220.784,0.105,1.03
-15.343,25.536,283.439,0.105,1.03
-12.582,19.374,219.789,0.105,0.995
15.713,24.196,274.488,0.105,0.995
-13.25,18.923,219.789,0.105,0.96
-16.188,23.119,268.521,0.105,0.96
13.651,18.115,215.811,0.105,0.925
-14.849,17.696,219.789,0.105,0.873
17.469,20.819,258.576,0.105,0.873
-17.905,19.886,254.598,0.105,0.838
15.902,16.467,217.8,0.105,0.803
18.226,18.873,249.625,0.105,0.803
-16.589,15.47,215.811,0.105,0.75
23.509,20.436,296.368,0.105,0.716
-18.282,13.777,217.8,0.105,0.646
18.666,13.07,216.806,0.105,0.611
-28.085,19.665,326.203,0.105,0.611
-19.151,12.918,219.789,0.105,0.593
28.251,19.055,324.214,0.105,0.593
-19.679,12.297,220.784,0.105,0.559
28.898,18.058,324.214,0.105,0.559
20.006,11.55,219.789,0.105,0.524
-28.968,16.725,318.247,0.105,0.524
20.028,10.649,215.811,0.105,0.489
29.349,15.605,316.258,0.105,0.489
-20.763,10.127,219.789,0.105,0.454
29.97,14.617,317.252,0.105,0.454
-30.126,14.048,316.258,0.105,0.436
21.361,9.067,220.784,0.105,0.401
-30.405,12.906,314.269,0.105,0.401
-21.274,8.166,216.806,0.105,0.367
30.837,11.837,314.269,0.105,0.367
31.231,10.754,314.269,0.105,0.332
21.792,6.662,216.806,0.105,0.297
-31.388,9.596,312.28,0.105,0.297
-21.904,6.281,216.806,0.105,0.279
31.55,9.047,312.28,0.105,0.279
-22.11,5.513,216.806,0.105,0.244
-32.253,8.041,316.258,0.105,0.244
22.289,4.738,216.806,0.105,0.209
-32.718,6.954,318.247,0.105,0.209
22.441,3.957,216.806,0.105,0.175
32.838,5.79,317.252,0.105,0.175
-22.565,3.171,216.806,0.105,0.14
33.02,4.641,317.252,0.105,0.14
22.721,2.79,217.8,0.105,0.122
-31.747,3.898,304.324,0.105,0.122
22.805,1.995,217.8,0.105,0.087
23.846,2.086,227.746,0.105,0.087
-22.756,1.193,216.806,0.105,0.052
20.564,1.078,195.921,0.105,0.052
-20.38,0.356,193.932,0.105,0.017
29.783,0.0,211.917,0.14,0.0
-24.216,0.0,172.307,0.14,0.0
29.779,0.52,211.917,0.14,0.017
25.604,0.447,182.209,0.14,0.017
-29.603,1.551,210.927,0.14,0.052
25.156,1.318,179.239,0.14,0.052
29.67,2.596,211.917,0.14,0.087
-26.342,2.305,188.151,0.14,0.087
29.561,3.63,211.917,0.14,0.122
-24.45,3.002,175.277,0.14,0.122
-29.416,4.659,211.917,0.14,0.157
26.589,4.688,192.112,0.14,0.175
28.724,6.105,208.947,0.14,0.209
-33.08,7.031,240.635,0.14,0.209
44.023,10.976,322.827,0.14,0.244
-28.228,8.094,208.947,0.14,0.279
44.014,12.621,325.798,0.14,0.279
28.325,9.203,211.917,0.14,0.314
-42.885,13.934,320.847,0.14,0.314
28.029,9.651,210.927,0.14,0.332
41.583,14.318,312.925,0.14,0.332
-27.805,10.673,211.917,0.14,0.367
41.447,15.91,315.896,0.14,0.367
-27.415,11.637,211.917,0.14,0.401
-40.995,17.401,316.886,0.14,0.401
26.993,12.587,211.917,0.14,0.436
-40.237,18.763,315.896,0.14,0.436
-26.644,12.995,210.927,0.14,0.454
39.778,19.401,314.905,0.14,0.454
25.552,14.752,209.937,0.14,0.524
-38.328,22.129,314.905,0.14,0.524
-25.257,15.783,211.917,0.14,0.559
24.169,16.923,209.937,0.14,0.611
-23.254,18.831,212.908,0.14,0.681
35.476,28.728,324.808,0.14,0.681
-22.583,19.631,212.908,0.14,0.716
-34.452,29.948,324.808,0.14,0.716
21.884,20.407,212.908,0.14,0.75
-34.403,32.082,334.711,0.14,0.75
-21.324,20.592,210.927,0.14,0.768
33.838,32.677,334.711,0.14,0.768
-21.076,21.825,215.878,0.14,0.803
32.967,34.138,337.681,0.14,0.803
19.836,22.03,210.927,0.14,0.838
-22.195,29.454,262.421,0.14,0.925
17.243,24.625,213.898,0.14,0.96
-16.145,24.861,210.927,0.14,0.995
20.314,31.281,265.392,0.14,0.995
18.36,34.53,278.265,0.14,1.082
-16.473,36.998,288.168,0.14,1.152
-10.234,28.118,212.908,0.14,1.222
14.423,39.626,300.051,0.14,1.222
-12.94,42.323,314.905,0.14,1.274
-7.816,29.172,214.888,0.14,1.309
11.707,43.69,321.837,0.14,1.309
-10.394,45.021,328.769,0.14,1.344
-4.659,29.416,211.917,0.14,1.414
3.029,43.316,308.964,0.14,1.501
-1.039,29.765,211.917,0.14,1.536
1.491,42.7,304.012,0.14,1.536
0.0,29.783,211.917,0.14,1.571
2.596,29.67,211.917,0.14,1.658
3.433,39.236,280.246,0.14,1.658
-3.63,29.561,211.917,0.14,1.693
4.732,38.54,276.285,0.14,1.693
-6.052,38.214,275.295,0.14,1.728
-6.646,37.691,272.324,0.14,1.745
-6.105,28.724,208.947,0.14,1.78
7.899,37.164,270.343,0.14,1.78
7.138,28.628,209.937,0.14,1.815
-9.091,36.461,267.372,0.14,1.815
8.133,28.362,209.937,0.14,1.85
-10.166,35.452,262.421,0.14,1.85
-9.074,27.928,208.947,0.14,1.885
10.524,27.415,208.947,0.14,1.937
-12.768,33.262,253.509,0.14,1.937
11.474,27.031,208.947,0.14,1.972
13.867,32.668,252.518,0.14,1.972
-12.587,26.993,211.917,0.14,2.007
14.763,31.66,248.557,0.14,2.007
13.205,25.917,206.966,0.14,2.042
-15.796,31.001,247.567,0.14,2.042
13.525,25.437,204.985,0.14,2.059
16.204,30.475,245.586,0.14,2.059
-14.544,25.19,206.966,0.14,2.094
17.466,30.252,248.557,0.14,2.094
15.266,24.431,204.985,0.14,2.129
-18.143,29.034,243.606,0.14,2.129
16.265,24.114,206.966,0.14,2.164
-19.378,28.73,246.577,0.14,2.164
-17.424,23.982,210.927,0.14,2.199
20.042,27.585,242.616,0.14,2.199
-17.673,23.452,208.947,0.14,2.217
-20.437,27.12,241.625,0.14,2.217
18.48,22.821,208.947,0.14,2.251
-21.458,26.499,242.616,0.14,2.251
-19.266,22.162,208.947,0.14,2.286
22.279,25.629,241.625,0.14,2.286
-20.027,21.477,208.947,0.14,2.321
23.159,24.835,241.625,0.14,2.321
20.765,20.765,208.947,0.14,2.356
-24.012,24.012,241.625,0.14,2.356
20.924,20.206,206.966,0.14,2.374
24.828,23.976,245.586,0.14,2.374
-21.823,19.649,208.947,0.14,2.409
25.443,22.909,243.606,0.14,2.409
22.069,18.518,204.985,0.14,2.443
-26.227,22.007,243.606,0.14,2.443
22.921,17.908,206.966,0.14,2.478
-27.417,21.421,247.567,0.14,2.478
-23.645,17.179,207.956,0.14,2.513
28.036,20.369,246.577,0.14,2.513
-24.055,16.843,208.947,0.14,2.531
-28.843,20.196,250.538,0.14,2.531
24.278,15.766,205.976,0.14,2.566
-29.88,19.405,253.509,0.14,2.566
24.694,14.838,204.985,0.14,2.601
30.539,18.35,253.509,0.14,2.601
-25.562,14.169,207.956,0.14,2.635
31.648,17.543,257.47,0.14,2.635
25.917,13.205,206.966,0.14,2.67
-32.365,16.491,258.46,0.14,2.67
26.143,12.751,206.966,0.14,2.688
31.522,15.374,249.548,0.14,2.688
-26.7,11.887,207.956,0.14,2.723
30.641,13.642,238.655,0.14,2.723
26.969,10.896,206.966,0.14,2.758
-28.776,11.626,220.83,0.14,2.758
27.333,9.948,206.966,0.14,2.793
-26.287,9.568,199.044,0.14,2.793
-27.399,8.902,204.985,0.14,2.827
25.281,8.214,189.141,0.14,2.827
-27.683,8.464,205.976,0.14,2.845
-23.69,7.243,176.268,0.14,2.845
28.096,7.528,206.966,0.14,2.88
-22.988,6.16,169.336,0.14,2.88
28.206,6.512,205.976,0.14,2.915
21.155,4.884,154.482,0.14,2.915
-28.416,5.524,205.976,0.14,2.95
20.629,4.01,149.53,0.14,2.95
28.179,4.463,203.005,0.14,2.985
-20.069,3.179,144.579,0.14,2.985
28.253,3.971,203.005,0.14,3.002
18.743,2.634,134.676,0.14,3.002
-28.374,2.982,203.005,0.14,3.037
18.409,1.935,131.706,0.14,3.037
28.322,1.98,202.015,0.14,3.072
-17.91,1.252,127.745,0.14,3.072
28.652,1.001,203.995,0.14,3.107
-17.525,0.612,124.774,0.14,3.107
34.556,0.0,195.977,0.175,3.142
22.053,0.0,125.071,0.175,3.142
-34.535,1.206,195.977,0.175,3.107
20.825,0.727,118.177,0.175,3.107
34.818,2.435,197.946,0.175,3.072
-21.307,1.49,121.131,0.175,3.072
34.194,3.594,194.992,0.175,3.037
21.242,2.233,121.131,0.175,3.037
-34.736,4.882,198.931,0.175,3.002
22.527,3.166,129.01,0.175,3.002
-34.373,6.061,197.946,0.175,2.967
-22.744,4.01,130.979,0.175,2.967
34.262,6.66,197.946,0.175,2.95
-23.353,4.539,134.919,0.175,2.95
-34.009,7.852,197.946,0.175,2.915
23.688,5.469,137.873,0.175,2.915
-33.546,8.989,196.962,0.175,2.88
25.327,6.786,148.706,0.175,2.88
33.212,10.154,196.962,0.175,2.845
-25.739,7.869,152.645,0.175,2.845
33.166,11.42,198.931,0.175,2.81
26.927,9.272,161.508,0.175,2.81
-32.962,11.997,198.931,0.175,2.793
28.066,10.215,169.387,0.175,2.793
32.845,13.27,200.901,0.175,2.758
-28.176,11.384,172.341,0.175,2.758
31.727,14.126,196.962,0.175,2.723
30.299,13.49,188.098,0.175,2.723
-31.839,15.529,200.901,0.175,2.688
31.215,15.224,196.962,0.175,2.688
-31.278,16.631,200.901,0.175,2.653
-32.504,17.283,208.779,0.175,2.653
30.983,17.174,200.901,0.175,2.635
-35.387,19.615,229.46,0.175,2.635
-30.067,18.066,198.931,0.175,2.601
36.318,21.822,240.293,0.175,2.601
-29.709,19.293,200.901,0.175,2.566
-38.447,24.968,259.989,0.175,2.566
29.302,20.518,202.87,0.175,2.531
-38.69,27.091,267.868,0.175,2.531
28.568,21.528,202.87,0.175,2.496
37.028,27.903,262.944,0.175,2.496
-28.325,22.13,203.855,0.175,2.478
36.399,28.438,261.959,0.175,2.478
27.536,23.105,203.855,0.175,2.443
-34.719,29.133,257.035,0.175,2.443
26.583,23.936,202.87,0.175,2.409
33.423,30.094,255.065,0.175,2.409
-25.857,24.97,203.855,0.175,2.374
32.727,31.604,258.02,0.175,2.374
-24.97,25.857,203.855,0.175,2.339
-30.88,31.977,252.111,0.175,2.339
24.396,26.162,202.87,0.175,2.321
-30.318,32.512,252.111,0.175,2.321
-23.696,27.259,204.84,0.175,2.286
28.709,33.026,248.172,0.175,2.286
-22.73,28.07,204.84,0.175,2.251
-27.102,33.468,244.232,0.175,2.251
21.632,28.707,203.855,0.175,2.217
-26.126,34.67,246.202,0.175,2.217
20.717,29.587,204.84,0.175,2.182
25.199,35.988,249.156,0.175,2.182
-20.003,29.656,202.87,0.175,2.164
24.373,36.134,247.187,0.175,2.164
18.956,30.336,202.87,0.175,2.129
-23.281,37.257,249.156,0.175,2.129
18.146,31.43,205.825,0.175,2.094
21.88,37.897,248.172,0.175,2.094
-17.038,32.044,205.825,0.175,2.059
20.381,38.331,246.202,0.175,2.059
-15.833,32.463,204.84,0.175,2.025
-19.259,39.487,249.156,0.175,2.025
15.338,32.892,205.825,0.175,2.007
-18.934,40.604,254.08,0.175,2.007
-14.181,33.407,205.825,0.175,1.972
17.37,40.92,252.111,0.175,1.972
-12.944,33.72,204.84,0.175,1.937
-16.118,41.988,255.065,0.175,1.937
11.816,34.315,205.825,0.175,1.902
-14.642,42.525,255.065,0.175,1.902
10.509,34.375,203.855,0.175,1.868
13.352,43.674,259.004,0.175,1.868
-10.004,34.887,205.825,0.175,1.85
12.636,44.067,259.989,0.175,1.85
8.78,35.214,205.825,0.175,1.815
-11.216,44.987,262.944,0.175,1.815
7.618,35.839,207.794,0.175,1.78
9.567,45.011,260.974,0.175,1.78
-6.302,35.741,205.825,0.175,1.745
8.202,46.515,267.868,0.175,1.745
-5.027,35.767,204.84,0.175,1.71
-6.598,46.945,268.853,0.175,1.71
4.402,35.85,204.84,0.175,1.693
-5.798,47.225,269.837,0.175,1.693
-3.178,36.327,206.81,0.175,1.658
4.177,47.745,271.807,0.175,1.658
-1.89,36.069,204.84,0.175,1.623
2.563,48.902,277.716,0.175,1.623
0.636,36.461,206.81,0.175,1.588
-0.882,50.524,286.579,0.175,1.588
-0.636,36.461,206.81,0.175,1.553
-0.885,50.698,287.564,0.175,1.553
1.279,36.617,207.794,0.175,1.536
-1.8,51.542,292.488,0.175,1.536
-2.556,36.551,207.794,0.175,1.501
3.634,51.968,295.442,0.175,1.501
-3.757,35.748,203.855,0.175,1.466
5.5,52.327,298.397,0.175,1.466
5.099,36.283,207.794,0.175,1.431
-7.492,53.307,305.29,0.175,1.431
6.302,35.741,205.825,0.175,1.396
-6.991,35.967,207.794,0.175,1.379
10.636,54.717,316.123,0.175,1.379
8.242,35.701,207.794,0.175,1.344
-12.773,55.328,322.032,0.175,1.344
9.483,35.391,207.794,0.175,1.309
14.966,55.855,327.941,0.175,1.309
-10.712,35.039,207.794,0.175,1.274
17.566,57.457,340.743,0.175,1.274
-19.335,56.152,336.804,0.175,1.239
-20.015,54.99,331.88,0.175,1.222
13.725,33.972,207.794,0.175,1.187
21.141,52.326,320.063,0.175,1.187
-22.601,50.763,315.138,0.175,1.152
16.062,32.932,207.794,0.175,1.117
-23.75,48.695,307.26,0.175,1.117
17.038,32.044,205.825,0.175,1.082
-25.028,47.07,302.336,0.175,1.082
-17.847,32.198,208.779,0.175,1.065
25.003,45.107,292.488,0.175,1.065
-18.781,31.258,206.81,0.175,1.03
-25.936,43.165,285.594,0.175,1.03
-26.954,41.506,280.67,0.175,0.995
-21.115,30.156,208.779,0.175,0.96
28.087,40.113,277.716,0.175,0.96
-29.052,38.553,273.777,0.175,0.925
22.558,28.873,207.794,0.175,0.908
-29.293,37.493,269.837,0.175,0.908
-23.663,28.201,208.779,0.175,0.873
-24.517,27.229,207.794,0.175,0.838
25.452,26.356,207.794,0.175,0.803
-32.087,33.227,261.959,0.175,0.803
26.481,25.573,208.779,0.175,0.768
-26.797,24.988,207.794,0.175,0.75
39.75,37.068,308.245,0.175,0.75
-27.39,23.81,205.825,0.175,0.716
46.828,37.92,341.728,0.175,0.681
-28.984,21.841,205.825,0.175,0.646
47.706,35.949,338.774,0.175,0.646
-30.014,21.016,207.794,0.175,0.611
-49.074,34.362,339.759,0.175,0.611
30.376,20.489,207.794,0.175,0.593
-48.515,32.724,331.88,0.175,0.593
30.778,19.232,205.825,0.175,0.559
49.186,30.735,328.926,0.175,0.559
-31.731,18.32,207.794,0.175,0.524
32.504,17.283,208.779,0.175,0.489
51.817,25.273,326.956,0.175,0.454
-32.892,15.338,205.825,0.175,0.436
52.092,24.291,325.971,0.175,0.436
33.727,14.316,207.794,0.175,0.401
-53.548,22.73,329.911,0.175,0.401
34.206,13.131,207.794,0.175,0.367
-53.822,20.66,326.956,0.175,0.367
-34.644,11.929,207.794,0.175,0.332
54.51,18.769,326.956,0.175,0.332
-34.873,10.662,206.81,0.175,0.297
-54.966,16.805,325.971,0.175,0.297
35.22,10.099,207.794,0.175,0.279
-54.917,15.747,324.002,0.175,0.279
-35.046,8.738,204.84,0.175,0.244
56.276,14.031,328.926,0.175,0.244
-35.839,7.618,207.794,0.175,0.209
-56.391,11.986,326.956,0.175,0.209
36.083,6.362,207.794,0.175,0.175
-57.63,10.162,331.88,0.175,0.175
36.111,5.075,206.81,0.175,0.14
57.778,8.12,330.895,0.175,0.14
-35.85,4.402,204.84,0.175,0.122
53.602,6.582,306.275,0.175,0.122
36.327,3.178,206.81,0.175,0.087
-49.647,4.344,282.64,0.175,0.087
36.59,1.918,207.794,0.175,0.052
37.283,1.954,211.734,0.175,0.052
-36.287,0.633,205.825,0.175,0.017
36.981,0.646,209.764,0.175,0.017
-42.622,0.0,200.52,0.209,0.0
40.543,0.0,190.739,0.209,0.0
42.615,0.744,200.52,0.209,0.017
-39.289,0.686,184.87,0.209,0.017
42.356,2.22,199.542,0.209,0.052
39.864,2.089,187.804,0.209,0.052
-42.253,3.697,199.542,0.209,0.087
39.974,3.497,188.782,0.209,0.087
-42.511,5.22,201.498,0.209,0.122
-41.685,5.118,197.586,0.209,0.122
42.303,6.7,201.498,0.209,0.157
-43.124,6.83,205.411,0.209,0.157
-42.179,7.437,201.498,0.209,0.175
53.645,9.459,256.275,0.209,0.175
-41.691,8.862,200.52,0.209,0.209
-57.553,12.233,276.816,0.209,0.209
41.356,10.311,200.52,0.209,0.244
-68.994,17.202,334.526,0.209,0.244
-41.371,11.863,202.477,0.209,0.279
67.952,19.485,332.57,0.209,0.279
-40.734,13.235,201.498,0.209,0.314
66.835,21.716,330.614,0.209,0.314
-40.89,14.079,203.455,0.209,0.332
-66.052,22.744,328.658,0.209,0.332
39.985,15.349,201.498,0.209,0.367
65.412,25.109,329.636,0.209,0.367
-39.425,16.735,201.498,0.209,0.401
65.07,27.621,332.57,0.209,0.401
-38.817,18.101,201.498,0.209,0.436
-63.125,29.436,327.679,0.209,0.436
38.495,18.775,201.498,0.209,0.454
-62.788,30.624,328.658,0.209,0.454
-37.816,20.107,201.498,0.209,0.489
61.131,32.504,325.723,0.209,0.489
-37.272,21.519,202.477,0.209,0.524
-60.139,34.721,326.701,0.209,0.524
36.145,22.586,200.52,0.209,0.559
-59.42,37.129,329.636,0.209,0.559
58.777,39.646,333.548,0.209,0.593
-35.425,24.805,203.455,0.209,0.611
58.246,40.785,334.526,0.209,0.611
34.537,26.026,203.455,0.209,0.646
-56.788,42.793,334.526,0.209,0.646
-32.638,28.372,203.455,0.209,0.716
27.664,32.969,202.477,0.209,0.873
14.578,40.051,200.52,0.209,1.222
22.115,60.761,304.204,0.209,1.222
-14.012,40.693,202.477,0.209,1.239
21.931,63.693,316.92,0.209,1.239
12.583,41.157,202.477,0.209,1.274
11.193,41.772,203.455,0.209,1.309
18.027,67.277,327.679,0.209,1.309
-9.681,41.935,202.477,0.209,1.344
15.949,69.081,333.548,0.209,1.344
-8.212,42.247,202.477,0.209,1.379
-13.964,71.84,344.308,0.209,1.379
6.7,42.303,201.498,0.209,1.414
-11.221,70.846,337.461,0.209,1.414
-5.99,42.619,202.477,0.209,1.431
9.751,69.384,329.636,0.209,1.431
-4.477,42.595,201.498,0.209,1.466
7.302,69.476,328.658,0.209,1.466
2.973,42.518,200.52,0.209,1.501
-4.743,67.822,319.854,0.209,1.501
1.509,43.219,203.455,0.209,1.536
2.3,65.868,310.073,0.209,1.536
-0.0,42.622,200.52,0.209,1.571
0.0,65.284,307.138,0.209,1.571
-0.74,42.408,199.542,0.209,1.588
1.121,64.235,302.248,0.209,1.588
-2.252,42.979,202.477,0.209,1.623
-3.341,63.741,300.291,0.209,1.623
3.697,42.253,199.542,0.209,1.658
-5.454,62.343,294.422,0.209,1.658
5.245,42.717,202.477,0.209,1.693
0.684,5.572,26.41,0.209,1.693
-6.7,42.303,201.498,0.209,1.728
9.432,59.552,283.663,0.209,1.728
